VERSION .7
FIELDS x y z
SIZE 4 4 4
TYPE F F F
COUNT 1 1 1
WIDTH 1698
HEIGHT 1
VIEWPOINT 0 0 0 1 0 0 0
POINTS 1698
DATA ascii
-1.764418 0.619680 -0.619184
-1.226160 1.216188 1.536346
1.182538 1.354576 2.413840
0.651204 2.055200 -1.226821
-3.492466 1.416468 0.411849
0.987026 0.518046 1.334926
-0.521318 -0.255913 -0.903670
0.997997 0.560113 1.234042
0.518847 1.833416 4.514043
-4.425241 2.028474 0.762033
0.955079 1.101682 0.931222
-2.862311 1.668271 0.907101
-4.109125 0.951009 7.249963
1.186972 0.615623 2.726023
-1.414346 -0.226352 -0.835731
0.946247 -0.029443 1.161863
-2.846506 1.661049 0.819537
0.026471 -0.475463 6.964157
-0.157633 -0.534574 -1.195591
1.100600 -0.061321 2.122258
1.144446 0.182845 2.366350
-1.918802 1.374010 -0.520312
-3.371503 -0.490023 -1.489202
-3.034009 -0.474248 -1.410403
1.148712 0.212121 1.989002
1.287144 -0.611504 3.119040
-1.477349 -0.626001 -0.872687
-1.307086 1.511297 4.130802
1.162235 1.223794 2.637281
-4.758710 1.047311 -0.131987
0.150700 0.020772 3.280304
0.959853 0.622332 0.810307
-1.013871 -0.297251 -0.850986
-7.685995 -0.166239 5.388505
-4.676541 -0.043376 -0.381427
-1.637553 1.287807 0.857053
-3.224188 -0.262148 7.918107
-5.861469 1.429817 6.790772
-2.348989 -0.200957 -0.838688
-0.890600 -0.864533 2.804930
1.038994 -0.183973 2.604636
-3.491528 -0.119577 -0.583743
-0.688836 -0.847444 -0.159899
-0.133187 -0.504295 -1.243072
-0.014894 0.191768 6.894642
0.812715 0.275726 -0.024935
-0.825468 -0.648127 -0.893154
0.354104 -1.006184 6.095694
-0.899664 -0.868244 2.804619
-0.508823 0.152897 3.395504
1.143462 0.402414 2.228271
-0.864924 -0.520371 -0.938900
0.761871 0.526791 7.310755
-0.668182 -0.742728 -0.952647
0.155768 -0.414375 -1.355724
-4.900668 1.054352 0.538752
-0.354054 -0.507565 -1.232758
-2.302669 1.395616 -0.143947
-1.027115 -0.558551 -0.873944
-0.376852 -0.299137 -0.945807
0.828052 -0.104428 0.227077
-0.937123 -0.614201 -0.843237
1.122277 0.078212 2.040193
-1.885028 1.352963 -0.494557
-1.458833 -0.242837 -0.871282
-0.712468 -0.875662 -0.171918
-2.415302 -0.196477 -0.804349
-0.160811 -0.367637 -1.053684
-3.709102 2.111269 1.579840
-0.261396 -0.328487 -1.027000
0.289147 0.601831 4.948916
0.841761 0.437207 0.298590
0.193968 -0.217874 -0.976910
-0.625628 -0.343521 -0.632538
1.095868 -0.163245 1.990478
-2.841994 1.131348 4.612268
-0.817960 -0.328231 -0.909168
-0.672995 -0.267230 -0.924607
-0.656040 -0.315499 -0.961916
0.255240 0.988986 3.915617
-0.712333 -0.863645 1.255824
0.365312 -0.717684 -0.880110
1.377301 1.081303 3.019188
-0.284320 -0.315700 -0.969951
-0.758565 -0.937832 1.267410
0.836192 0.167739 0.838971
1.201165 -0.185194 2.412869
-3.238285 -0.281030 8.037298
-0.519500 -0.975265 1.231019
-2.654225 -0.799808 4.233817
-0.651233 -1.026775 1.273643
1.105756 -0.353794 1.939734
1.258947 0.308081 3.345151
-0.919133 1.187244 1.498164
-0.195821 0.126828 3.271042
1.036573 1.282787 1.450889
-5.272195 1.957188 2.762592
-0.448252 -0.869454 1.197714
-4.193099 -0.255533 8.908781
1.275326 0.689617 2.876030
1.262347 1.319781 1.828649
-1.404125 -1.544764 1.322865
-0.272891 -0.949403 3.851859
-0.495936 -0.225592 -1.041651
-1.125160 0.531391 -1.013457
-1.776554 1.402298 -0.690114
-3.463984 -0.682550 0.288550
1.019950 0.119031 1.143788
1.020707 -0.021860 1.125171
1.181345 0.619681 7.562181
0.900493 -0.075479 0.033599
-1.117450 0.364522 7.509819
1.210373 0.042375 2.766199
-3.116322 -0.745217 3.007551
-2.890530 -0.653673 1.541678
1.141383 -0.300992 1.801198
-0.240944 -0.967674 0.489470
-3.499466 1.366054 0.525354
-6.085557 0.077772 4.091038
-2.251752 0.594527 -0.671812
-0.743083 -0.878093 2.910562
-0.948171 1.245406 0.024636
1.241263 0.039890 2.873960
-1.634733 0.714403 -0.815135
0.895859 0.177642 0.128111
-1.127152 0.310809 -0.925456
-0.689199 -0.275587 -0.966245
-1.269471 0.313301 -0.866009
-0.477416 -0.778355 7.173144
1.108246 0.303213 2.028272
-6.238269 1.437541 6.085103
-1.017397 0.465735 -0.834543
-0.746290 -0.612850 -1.559175
-1.725724 0.842821 -0.639405
0.770374 0.160488 -0.019240
1.076988 -0.320864 3.823567
-1.049522 0.542397 -0.884756
1.840606 -0.988032 4.396389
-0.993874 0.406663 -0.877734
0.909272 -0.058982 0.611887
-1.264748 0.557501 -0.854296
0.979595 -0.117218 0.671323
-5.005661 -0.221515 -2.171020
-1.542095 0.259317 -0.843859
0.648402 1.844780 4.755144
-1.038550 0.220574 -0.899951
1.454055 0.992976 3.865823
0.906409 -0.198581 1.231621
-0.015146 -0.960912 3.793015
-1.267647 0.238166 -0.847071
0.960797 0.465748 0.807132
-2.860241 0.693716 -0.443574
-1.137061 1.262449 1.272823
-3.745911 0.914449 -0.183819
-3.536842 1.024172 6.543109
-1.241356 -0.852655 3.639372
-0.694172 -0.479437 -1.312746
1.214207 0.155972 2.568494
0.788274 0.223936 -0.016204
-2.944747 1.598956 0.916521
-2.225803 0.506619 -0.621972
1.118464 0.313458 2.064663
1.064671 0.301394 1.975175
0.658640 -0.171662 -0.045305
-0.948490 -0.876870 2.793885
0.810640 -0.175262 0.835815
-0.422953 1.160891 2.164629
-1.438663 -0.836716 3.531615
1.186017 0.369018 2.485900
-2.578353 0.644323 -0.450370
1.090247 0.166333 1.752584
-6.312525 1.445419 3.071589
-2.363571 0.572910 -0.437501
0.655096 -0.508156 6.865076
-0.825149 -0.647555 -0.892287
-5.605678 -0.615242 3.504568
1.094128 0.971809 1.687905
1.093231 0.574707 1.687394
-1.316843 0.962410 -0.560314
-0.618067 0.987963 -0.872975
-1.482961 0.656658 -0.626177
-1.103139 0.821979 -0.862834
-1.054667 1.150020 -0.777994
1.033109 -0.140248 6.448456
-2.608438 1.210177 0.505266
-1.634754 1.211432 -0.232793
-2.661891 -0.600590 1.396291
0.933660 0.993812 0.655917
-2.890112 1.433980 -0.238841
-2.421451 1.222453 -0.328898
1.066248 -0.061153 1.680521
0.791095 -0.170031 0.836844
0.845277 0.212024 0.339038
-0.864205 -0.777908 0.049575
-1.988234 1.074218 -0.288221
-0.710476 -0.440788 7.425659
1.282064 -0.443252 2.339512
-1.548873 -0.414223 -1.015775
1.161986 0.300060 0.972893
-1.500358 0.671090 -0.492477
1.693055 0.041175 4.535097
-0.755408 -0.942404 -0.162320
0.856560 0.174964 0.818901
0.836698 0.159261 0.233975
-1.716075 1.089511 -0.521758
-1.890847 1.046019 -0.415130
0.841950 0.392072 0.370802
-4.865244 1.603248 0.758906
-0.416863 0.151820 -0.952400
-3.536566 1.388506 4.133931
-0.234877 0.155386 -1.098935
0.889579 0.002719 0.371552
-0.191750 0.103265 -1.035412
-6.899794 0.230131 2.958103
-0.808211 0.325744 -0.932552
-0.196918 -0.555461 -1.467011
-3.513736 -0.133454 -0.604606
-0.766755 0.202664 -0.935919
1.101988 0.588839 1.643687
-0.902169 0.893381 -0.995388
-0.488028 1.023361 -0.860616
-0.012992 -0.963877 3.797595
-2.291414 -0.498653 1.173413
-0.737831 0.599322 -0.921241
-0.890446 0.586839 -0.884828
1.104171 -0.273251 3.891976
-0.848812 0.594510 -0.913252
-0.481794 -0.893335 7.377731
-2.249569 0.585279 -0.651405
-1.422153 1.691734 4.463857
0.823058 0.486036 0.191674
1.259607 -0.207556 2.650605
-3.275413 2.106072 6.127792
0.995452 0.216748 1.229943
-0.921443 1.189383 1.507028
0.832513 -0.177354 0.847403
1.057879 1.427534 3.745907
-0.885776 1.216491 0.951291
-0.945635 1.221942 1.766053
-3.110950 -0.703380 1.640846
0.182399 -0.980584 4.972398
0.888213 0.463186 0.311172
-3.222125 -0.524109 -4.026134
-1.262542 1.245985 1.556736
-2.585475 1.648886 0.281645
-1.073476 1.213945 1.606785
1.022136 0.473897 0.971072
-0.456497 1.180550 2.169214
1.201239 -0.197963 2.773986
1.020842 0.121200 1.228517
-6.761989 9.604131 4.552733
-1.631488 1.313617 0.750938
-1.254550 1.242020 1.782777
-0.442094 2.086847 2.324925
1.357172 -0.619972 2.675898
1.014370 0.742715 1.431424
-3.310094 1.335074 8.373754
0.906364 0.696415 0.086251
-0.436477 1.657108 2.062810
-0.669098 -0.464558 -1.279884
-0.997720 1.801762 3.401712
0.853258 0.503841 0.372054
-0.512513 1.484280 2.333787
1.062348 1.425091 1.451498
-0.435469 1.174625 2.174765
-0.262552 -0.926260 3.803442
-5.040554 1.445506 1.553758
-0.264482 -0.929636 3.811459
0.774000 -1.098415 7.016316
-3.242031 2.038976 1.722489
0.973399 0.074523 -0.157757
-0.294823 0.167550 -1.184991
-6.495556 0.611708 -0.151878
1.007968 0.443808 1.428027
-4.857430 1.341430 1.198604
-4.990932 1.605428 1.552446
-5.663032 0.463694 2.690426
-3.912513 1.645992 1.709585
-0.101568 -1.118333 4.166698
-4.403043 1.558102 1.728228
-4.804512 -0.631742 5.752090
0.930203 0.987254 0.403972
0.889002 1.113677 1.169900
-0.647274 -0.338019 -0.968650
-3.995896 1.459168 0.503737
1.091695 0.032554 2.369481
0.889532 -0.020887 0.667667
0.576968 -0.892691 -0.633106
-0.879016 -0.504737 -0.876017
-0.416259 0.154393 -0.958683
-3.939564 1.341512 2.273062
-2.433083 0.902127 -0.549665
-2.843017 2.115762 0.819011
-1.070590 0.546000 -0.904376
-5.805153 1.071667 6.955917
-1.297364 0.550049 -0.943816
-1.821673 1.428945 0.350362
-2.218938 1.441965 0.368600
-0.723649 1.271731 0.204095
-3.213346 1.555177 1.018511
0.312084 0.472811 5.742362
1.146654 0.394317 2.164791
-3.473910 2.271440 1.464024
-5.806720 -0.597481 3.524779
1.141093 0.065144 2.294415
-3.278648 1.508359 0.324350
-5.938861 1.325700 8.074890
1.089615 0.572263 1.686033
-2.504910 1.186857 0.448932
-0.253787 -0.939863 2.506997
-2.969726 1.302331 0.549724
-2.700626 0.796246 -0.394061
1.115224 0.103621 2.546592
0.527173 0.745400 -1.043480
-2.700218 1.416762 0.477097
-4.343679 -0.790267 8.003392
-4.115615 0.844339 8.311364
-2.386833 1.260310 -0.260480
-1.551289 1.279024 1.095737
-6.799177 0.080865 5.044312
-2.013493 1.427799 0.335641
-1.176786 1.212920 1.039982
-1.270531 1.275357 1.014998
1.251100 -0.341523 6.435409
-5.680408 1.326426 2.804910
-2.790810 1.915169 1.507776
-1.314802 1.290187 0.792997
1.049856 1.184195 3.803218
-3.389536 1.667510 1.877411
0.874961 0.158288 0.319178
-3.768580 1.668792 6.467437
-3.360955 1.582269 1.603161
-4.172110 2.276816 2.875699
0.896083 -0.010022 0.547682
-3.435855 2.230833 1.791249
-4.880042 -0.755823 7.381209
1.275888 1.111105 3.507782
0.850346 -0.100764 0.584132
-3.847634 2.205250 1.539198
0.871292 0.671498 0.085260
0.775106 -0.097276 0.414159
0.917397 -0.036950 0.750761
0.887406 -0.014046 0.525675
-3.022130 1.145306 4.587432
0.984437 0.774840 0.765763
0.912307 -0.057434 0.610679
-2.044804 0.647818 -0.498894
0.815294 -0.113316 0.820693
0.780761 -0.101527 0.418713
-0.447827 1.176498 2.163128
0.935883 -0.005801 0.798071
-0.950049 -0.809164 0.001832
-1.176407 1.216762 1.045696
0.904286 0.645224 0.249046
0.918715 -0.049431 0.751257
-6.855575 2.433032 4.050906
-4.055764 1.463976 0.558157
0.873171 0.530386 0.828264
0.132544 -0.923130 4.831768
0.805175 -0.102112 0.118321
-1.294868 1.276391 1.600006
-1.087800 0.299175 -0.890512
1.028524 0.436156 1.302171
0.835937 -0.122607 0.226225
-0.492382 1.232705 2.244025
-1.015752 0.220912 -0.882093
0.965396 -0.098964 0.903922
1.036820 -0.112838 1.612468
1.003723 0.261708 1.047790
0.988347 0.244193 1.063628
0.914607 -0.206412 1.359941
-2.249689 1.447008 0.055439
-2.858393 1.100150 7.093889
-0.058606 -1.003418 5.152412
0.875721 -0.187070 0.427864
0.833405 -0.215650 0.945947
1.155581 0.050811 2.017476
0.859331 0.510581 0.345379
1.217591 1.518116 3.280519
-4.282117 2.178204 1.435032
-0.708441 -0.862611 1.252395
1.001289 -0.077101 1.157898
0.186445 -0.409528 -1.221110
0.954162 -0.211787 1.743364
1.178296 0.393764 2.444414
0.995721 -0.123471 1.104923
0.143429 0.026984 3.354957
-2.927805 1.454274 -0.243763
1.090812 -0.062295 2.108683
-4.438111 -0.071383 0.135274
1.274888 -0.526985 1.774020
1.415283 -0.650035 2.725753
0.844149 0.489499 0.335730
1.369485 -0.620949 2.674808
-1.888786 1.323459 -0.041538
0.597658 -0.966625 0.158697
-1.034354 -0.744942 -0.876434
0.596603 -0.967703 0.175080
0.198373 -0.972568 0.740625
-1.014600 -0.547127 -0.853378
0.129334 -0.323392 -0.718327
-1.970191 0.640499 -0.573157
-1.257633 1.245946 1.566343
0.087786 -0.359131 -1.030743
-0.429988 1.650047 2.048329
-1.120222 1.209738 -0.887157
-3.409984 0.939559 -0.060577
1.149722 0.056842 2.255572
-0.533637 -0.299013 -0.921581
0.316095 -0.303617 -1.055127
0.676125 -0.147326 -0.020764
-4.668991 -0.486619 -1.716127
0.868193 0.424682 0.855202
0.916842 0.145124 0.626586
0.896594 0.646201 0.375450
0.841290 0.244870 0.329418
0.864950 -0.012121 0.444200
0.837696 0.006454 0.296727
0.861321 0.156558 0.311273
0.521668 1.836574 4.508005
-2.767350 1.332101 4.568975
0.974570 0.543571 -0.099485
1.282625 0.327232 3.181087
0.889185 0.609686 0.399108
-1.279060 0.255713 -0.887842
-1.381683 1.060494 -0.504233
1.059793 -0.231851 2.145606
-1.111870 0.519630 -0.923808
-1.324995 1.319020 1.046373
0.885844 0.756862 0.863111
0.856792 0.645131 0.160152
-1.256299 1.241691 1.553928
-1.240656 1.269035 1.765224
0.904986 0.681204 0.236855
0.820746 0.349425 0.131565
-7.222598 0.040483 -0.386243
0.767727 -0.163552 0.418548
0.853514 0.504941 0.371371
0.998602 0.458061 1.241042
-6.849740 0.077047 5.057309
-1.313375 -0.876208 3.679681
1.448034 -0.445007 3.629062
0.988580 0.229958 1.232077
1.100709 0.786856 1.689480
1.116325 0.077776 2.027908
1.026605 0.095514 1.500290
-3.512024 1.434375 6.139922
1.041029 0.755002 1.478035
1.173470 0.437412 2.155908
1.158135 1.564019 2.156202
0.809987 0.007250 0.437486
-1.027385 -0.291672 -0.930287
1.120936 1.132124 2.411741
1.125635 1.363690 2.201531
0.776541 0.165758 -0.022276
-2.146320 1.390859 0.412074
-3.466108 -0.680757 0.312919
1.243756 -0.289198 3.756312
-0.807985 -0.574427 -0.887297
-0.784404 -0.315124 -0.864816
-0.659786 -0.819749 -0.476320
-1.046348 1.212989 -0.866867
-0.594812 -0.670081 -0.854490
1.120897 -0.253368 2.694245
-0.819685 -0.591285 -0.897649
-0.510328 -0.947455 1.229905
0.825126 0.491907 0.135543
-0.459322 -0.882566 1.213522
-1.199612 0.410396 -0.863337
-4.226109 1.452475 0.170155
0.798037 0.696344 0.504335
-1.432611 -0.826603 3.502021
1.169730 1.862868 3.360242
0.914939 -0.042929 0.750439
-3.776791 1.724339 3.615669
-2.242281 1.541575 0.037299
-1.519682 0.255997 -0.828102
0.809450 0.515076 -0.013440
-0.749610 -0.832238 -0.976424
-0.771581 1.266574 0.172844
0.870808 -0.064782 1.040906
1.319366 -0.407926 3.107028
-1.666142 1.236226 -0.237214
0.990096 0.453064 1.235572
-2.085446 1.449540 0.022502
0.768291 -0.974430 0.338447
-1.550738 1.214571 -0.190153
-4.992272 1.606553 1.534820
-2.876705 1.434451 -0.158937
1.107066 0.590423 1.698275
0.156952 -0.191817 -0.844889
-5.852547 1.388907 5.916952
0.626086 -0.970843 -0.698353
-5.490500 1.505616 5.115104
0.523808 1.003731 5.359979
0.793757 0.197853 0.389944
0.858286 0.418649 0.852629
0.863317 0.407646 0.378700
-0.742070 0.599293 -0.926305
-0.564870 -0.242208 -0.936801
1.018036 1.062966 1.473985
-2.242722 1.447535 0.062095
-0.854595 1.247019 1.193202
1.172650 0.026807 2.468026
0.823402 0.268361 0.111715
1.017743 0.114201 1.224018
0.975094 0.293259 0.983512
0.829372 0.147188 0.232033
-2.143719 1.683412 0.407918
-2.174493 -0.893339 6.763174
0.834147 0.244204 0.329609
-0.194784 -0.498891 -1.236415
0.982432 -0.078974 1.153971
0.208705 -1.017422 5.068800
-1.767290 0.597489 -0.616962
-2.753750 -0.625519 1.428306
-2.641876 1.410440 6.381915
1.004485 0.562705 -0.100283
0.900310 0.284483 0.221197
-1.477917 1.223760 1.055564
-1.262743 0.511509 -0.872469
-5.263245 1.014875 6.416008
1.185322 -0.008871 0.992939
-2.586385 1.683253 3.961883
0.822854 0.259469 0.156407
-2.119260 -0.875824 6.654478
-0.866415 -0.393735 -0.894213
-1.272456 1.258699 1.559332
-2.515088 1.005493 -0.316710
-0.919848 1.220744 1.783298
-2.712734 1.418487 0.465738
-0.713174 -0.350906 -1.116680
0.871836 0.011163 0.352049
-1.417601 -0.233897 -0.838796
0.820145 -0.174459 0.842090
0.927244 -0.042133 0.750362
0.779841 -0.100404 0.416927
-5.210269 1.575771 0.946695
0.800544 0.243439 0.324765
-0.817209 -0.585191 -0.895317
-2.166795 1.527835 0.347911
0.949331 0.917604 0.414211
-3.478741 1.433115 6.072047
0.891150 -0.011295 0.546713
1.149460 -0.174473 2.352517
0.819195 0.349916 0.133622
0.632270 -0.137167 -0.013257
0.820966 0.484106 0.190848
0.842006 0.032290 0.250647
-1.028044 0.229033 -0.905513
-0.792734 -0.851905 -1.268771
1.114635 0.605202 2.024014
1.005672 0.077393 -0.163554
0.853108 0.400423 0.374670
0.871638 -0.038971 0.340689
0.954151 0.752152 0.748050
0.832067 -0.044517 0.242646
1.226160 0.442493 1.896505
-1.275035 0.321184 -0.888783
0.874546 0.158708 0.321388
-3.559941 2.037438 6.364467
-2.825372 1.353684 4.427521
1.059599 0.122613 1.167030
0.987281 0.227008 1.231404
0.826964 -0.009351 0.846919
-0.464880 1.340415 2.146367
-0.498832 -0.915362 2.548990
0.995223 0.441009 1.234057
-0.827337 1.239818 1.205571
0.853967 0.011306 0.316794
0.414180 -0.930429 0.017708
-1.080790 0.300438 -0.879170
1.232962 0.381297 2.701259
0.600367 -0.972676 0.161816
-2.303279 0.525476 -0.650544
0.419837 -0.884382 -1.102766
1.017900 0.100351 1.123927
0.377577 -0.309234 -1.048932
0.871509 -0.984661 -0.738785
0.858107 0.607874 0.375345
0.673416 -0.146864 -0.019481
0.677282 -0.173888 -0.048432
0.218454 -0.860771 -0.518451
0.860288 0.413930 0.857004
0.823057 0.009265 0.300202
0.953793 0.248374 0.799366
0.365020 -0.848996 -1.058187
-2.824976 1.670600 3.784982
0.860948 0.007565 0.307175
0.839394 0.246992 0.329354
-0.805128 -0.881024 0.742407
-5.675287 1.084527 6.745045
0.871482 0.003295 0.364562
0.853436 -0.956009 -0.718327
0.761854 -0.160246 0.371659
-1.450712 0.687086 4.420115
0.834055 0.158732 0.235152
0.962319 -0.027131 1.144505
0.821711 0.155779 0.124907
0.591000 -0.909249 -0.651098
1.523857 0.917459 3.636057
1.393355 0.581482 3.298639
0.877811 0.182108 0.827964
-0.098809 -0.543833 8.061973
0.922098 0.968936 0.630451
1.218545 0.957463 2.504623
1.097087 1.109505 2.359216
1.021510 0.122073 1.147842
-4.709066 1.653698 6.852142
0.782899 0.164834 -0.021120
-4.882565 1.738007 2.582052
1.395153 -0.522048 3.084151
0.856984 0.413066 0.854091
0.878566 0.748516 0.862040
0.645010 -0.091296 0.359936
-2.496417 1.301434 0.423410
1.160615 0.145529 2.475702
-0.753397 0.592999 -0.952920
-2.832658 2.284122 0.764109
0.843189 0.505177 0.218712
0.675686 -0.173068 -0.046077
-3.340118 2.214892 3.610741
0.993791 0.248176 1.066901
-0.804234 0.218674 -0.993703
-1.307731 1.290327 1.030955
-2.467513 1.323438 -0.358827
-3.422009 0.931717 -0.052948
0.858332 -0.040010 0.338710
0.882569 0.541649 0.829818
-1.964108 0.795762 -0.441570
-5.775463 1.094426 6.853706
-1.297902 0.256421 -0.890243
0.807529 -0.101433 0.118145
-1.774974 0.859923 -0.691051
-0.553411 -0.903341 1.183234
-1.310951 -0.875048 3.684587
0.798658 0.510673 0.012588
-3.855895 1.454237 -0.183452
-2.312828 1.136062 -0.480770
0.856469 0.005811 0.308073
0.875341 0.003681 0.364944
1.140186 0.671321 1.875176
-0.637827 -0.317087 -0.944454
1.340692 0.714283 2.989638
-0.549040 -0.297833 -1.019615
-0.643864 0.777846 -0.940516
-1.400014 -0.832258 2.838420
-1.280738 0.553849 -0.884151
-1.313210 -0.200329 -0.589319
-2.274762 1.760468 0.673803
0.967542 2.060065 -0.451890
-1.478895 -0.622377 -0.871139
0.796342 0.194265 0.422744
-0.811720 -0.802300 -0.908567
1.240285 -0.325123 2.705801
0.976567 -0.063000 1.138826
-1.289022 0.248332 -0.879988
-0.490984 0.887439 -0.851559
0.877835 -0.196073 1.319458
0.589118 -0.910491 -0.651050
-0.923688 1.285277 0.634784
-0.803240 -0.363135 -1.328571
-0.035174 -0.942027 1.454050
0.683203 -0.171833 -0.046996
0.901355 -0.192431 1.374482
-0.795359 -0.316384 -0.880214
-0.089944 -0.948719 4.965759
0.132036 -0.325911 -0.731195
0.850639 0.488480 0.379004
-1.055428 1.290158 -0.583921
-0.828569 -0.600303 -0.905174
0.581482 -0.937738 0.171228
0.811146 -0.101487 0.116709
-0.202648 -0.998190 0.530844
0.865696 0.719092 0.863589
-0.361419 -0.587041 -1.173084
-1.391842 -0.834391 2.838013
-1.302215 1.360273 1.153963
1.450693 -0.421886 3.680592
-1.317918 0.384633 -0.849581
-0.910981 -0.687165 -1.014688
-0.912767 -0.873606 2.807301
-0.834560 1.323514 -0.580441
-1.273396 0.316478 -0.875602
1.239661 0.940066 3.877631
1.218856 0.044180 2.774157
-2.473793 0.681394 -0.525646
-2.615386 0.650435 -0.501184
0.805629 0.165566 -0.044812
-2.048067 0.648380 -0.498896
1.214865 0.029850 3.364376
-1.280197 1.248755 0.988213
1.222104 0.131811 2.908425
-1.041849 1.032718 1.320783
-0.179414 0.772808 -0.953023
1.349562 -0.373212 3.265121
-0.451588 1.812010 1.969287
1.018656 0.165489 1.469898
-0.805110 0.221820 -0.991712
-3.561974 -0.563294 -1.690345
-0.561433 -0.472503 -1.363818
1.310345 0.713136 2.875796
-0.526414 -0.292114 -0.944205
0.644715 -0.092870 -0.009142
-1.476801 -0.626766 -0.873056
-2.956639 1.063345 4.225976
-0.999823 -0.422228 -0.842271
-2.898960 1.691975 0.903672
0.998252 1.036470 0.307636
0.802156 0.136177 0.426270
-1.554985 -0.686724 -0.952575
-1.532590 -0.821464 3.033388
-0.937530 1.230856 0.026012
-3.471589 -0.683860 0.277124
-2.790913 1.805536 3.895880
0.864469 0.733889 0.853529
0.683123 -0.172117 -0.044303
0.214846 0.981226 3.569733
-1.468848 0.561577 -0.804129
-1.590283 1.262636 0.852732
-3.811558 1.382605 7.565962
-0.539762 -0.684658 0.964512
-1.573228 1.037273 -0.774093
0.880941 -0.201150 1.313626
1.029846 0.082636 1.508105
0.193301 -0.212641 -0.976024
-0.973584 1.269176 1.535544
-3.675820 1.430383 0.435200
0.126868 -0.315206 -0.698965
-0.445049 -0.206313 -0.915116
1.275085 -0.516349 1.780130
-2.996981 1.492235 -0.236221
-5.625635 3.301789 8.694979
-1.233049 1.248339 1.783644
-3.620351 1.434147 -0.346886
0.858736 0.218628 0.852241
-3.502162 1.164444 1.916202
-3.714777 2.240635 1.758680
1.257872 0.123218 3.245656
1.096724 0.201394 1.810144
-3.354568 1.654004 1.857557
-6.120728 -0.650084 3.747389
1.004034 1.045369 1.460906
-6.334654 1.771067 5.881705
-3.232277 1.566813 1.012043
0.989654 0.558198 1.231276
-5.333375 1.589789 2.749667
-2.878963 2.152569 0.811626
-4.263504 1.413553 3.809657
-3.275105 1.721372 6.224790
-0.773164 0.237643 -0.906103
-0.250721 0.164264 -1.169525
-2.951948 1.358192 0.229725
-4.088847 -0.233269 8.763216
-4.753169 1.291404 1.294023
-0.676375 0.285001 3.393351
1.233073 0.374220 2.884753
-2.718907 1.457167 0.125818
-0.747644 1.907392 2.249706
-3.606928 0.901636 7.684318
-0.911492 -0.242441 2.864643
0.305943 -0.242337 -1.095482
-0.711139 -0.851928 -0.186508
-0.903356 1.159685 1.684325
1.142619 1.807063 3.204037
-5.693994 -0.583501 3.482815
0.862507 0.611190 0.377762
-4.662409 -0.610203 -3.617518
0.627538 -0.982627 1.354382
-0.034012 -0.000190 0.359869
-1.657205 0.960868 -0.542169
-4.366120 2.246670 3.839962
-0.458024 -0.355851 -0.983625
-1.712250 0.530489 -0.628946
-5.308689 1.523718 4.663539
-0.343915 -0.492505 -1.181644
-3.520798 1.422098 6.148776
-7.180046 -0.149179 -0.476645
1.050360 0.861315 0.790007
0.764563 2.015932 -1.067937
-0.520344 -0.218728 -1.074251
-0.957590 -0.628605 -0.827093
-1.755015 1.166191 -0.630892
1.105570 0.075175 2.014287
1.045897 0.092143 1.517640
-1.510679 0.263340 -0.843037
1.177933 1.914865 3.453806
-0.429602 0.162366 -1.046798
-0.539739 -0.267630 -0.945044
-2.972470 2.221320 0.827940
1.085432 0.772897 1.680627
-2.994037 1.664863 0.864107
1.139185 1.380099 2.231243
1.172572 0.999095 3.229123
1.127185 0.315799 2.076066
-6.173506 0.521922 2.893833
1.207850 0.641136 1.864349
-0.202883 0.317099 3.285588
1.236930 0.375698 2.883109
1.086607 1.463024 1.492258
-0.374580 -0.600672 -1.214984
-0.461213 -0.884358 1.210628
0.192610 -0.276096 -0.997938
-3.070523 -0.432918 -1.447976
-0.855891 -0.349612 -0.849146
1.105237 1.133524 1.388712
-3.402598 1.729946 1.878585
0.861774 0.142671 0.318495
0.965738 -0.160287 1.477929
-2.350453 1.378312 -0.129723
-0.243866 0.156911 -1.117958
0.997110 -0.182467 2.643077
-1.553232 -0.828317 3.040022
-2.811701 1.671519 3.792346
-2.190913 0.700799 -0.625670
1.352367 1.580281 2.743893
-1.319707 1.259177 0.793854
-1.010732 -0.302294 -0.854039
-3.218083 1.382870 0.235609
-1.350380 -0.769904 3.178275
1.034403 0.080187 1.520167
-3.953568 1.143545 6.537385
-0.266266 -0.315985 -0.947425
-0.583218 -0.472340 -1.286297
0.826228 0.163875 0.118612
-3.864033 1.630020 1.690410
-1.903167 2.769744 4.597748
-2.589937 0.656648 -0.462731
-3.724558 0.901594 -0.148823
0.894509 0.229113 0.762018
-1.637357 1.320541 0.761626
1.034544 0.093857 1.509451
-2.643692 -0.840146 5.592311
-3.592589 1.448256 0.032375
0.122595 -0.285417 -0.675217
1.006158 0.567582 1.247820
-0.869745 -0.367401 -0.857053
1.258933 -0.486346 1.779390
0.764844 -0.157800 0.393930
-0.885449 1.490942 -1.148637
-3.822004 1.746102 3.629526
-1.595941 1.286202 0.809444
0.912265 0.806535 0.561811
-1.501729 1.387883 -0.680731
0.991432 0.180040 0.355856
-0.900368 0.885181 -1.063387
-3.617072 1.317812 0.455789
-3.037944 -0.221584 7.554636
0.955112 -0.137505 1.426887
0.412458 0.772732 6.484900
-2.357302 0.646684 -0.496904
1.124493 0.744260 2.353289
1.235881 0.141537 2.883040
-4.230640 1.434666 0.171653
0.371206 -0.304223 -1.020357
0.990119 0.797610 1.096184
-1.484405 0.570580 -0.814940
1.064729 0.762668 1.510215
1.018957 -0.228236 2.112741
-1.571274 0.724713 4.658684
-5.409195 2.147867 2.745813
-0.757440 -0.941099 1.253568
-0.700546 -0.859728 1.243808
-0.268969 -0.314871 -0.947185
1.093437 -0.137160 1.438430
-0.347057 -0.490422 -1.188238
-4.030563 1.449185 4.192289
1.094076 0.615038 -0.460049
-0.970200 -0.910215 -0.074632
-0.597620 0.275703 3.391593
-2.787647 1.344971 0.869989
-2.283508 -0.795859 5.241375
1.018827 -0.030650 1.145423
-0.491197 -0.798147 7.031208
-2.574505 -0.785246 4.240879
-2.539905 1.178031 -0.366946
1.062898 -0.228034 1.672414
1.007628 0.196964 1.480170
-1.707819 0.552330 -0.580743
-3.045150 1.687507 0.885547
-2.589605 1.118720 -0.349445
0.863878 -0.188552 1.308274
1.156708 0.983797 2.730431
-0.708330 -0.861622 1.257429
1.324569 1.203383 3.483450
-1.735446 1.371556 0.339774
-6.233284 1.480269 6.160471
1.037983 -0.142491 1.871059
1.081369 0.962959 1.670739
0.864299 0.653614 0.162282
0.849242 0.508064 0.218763
1.062574 0.646733 1.853618
-5.040594 0.849027 7.482829
0.822159 0.258213 0.153705
-0.653730 -0.847028 -0.001481
-0.766311 -0.968617 1.262268
-1.627806 0.714825 -0.811450
-0.998991 -0.425650 -0.840887
-0.116725 -0.470645 7.223568
0.929951 0.326004 0.600637
0.762204 -0.102939 0.413075
-0.123894 -0.738278 6.689517
0.913805 0.000750 0.628374
0.524370 1.865916 4.574926
0.745713 0.199439 6.239221
0.484297 -0.960391 0.674155
-2.203476 1.433233 0.372541
-3.478430 2.275341 1.463433
0.819517 -0.097031 0.224041
-6.019008 -0.627645 3.704731
-0.328610 -0.897767 -0.233069
1.040598 0.497608 0.782841
1.105786 0.406383 2.050987
0.847840 0.396355 0.372585
1.410844 -0.652066 2.728770
1.190947 0.154390 2.652977
-0.069002 1.902356 3.104751
-0.159049 -0.366397 -1.058749
-2.503227 -2.641183 1.788447
-1.562941 1.432588 4.807416
1.165508 -0.372115 1.910863
0.880210 -0.193498 1.221167
0.340843 -0.797810 -1.079610
1.004808 0.448140 1.419250
-2.104767 0.865422 -0.506755
-0.031237 -0.952557 3.754848
0.201356 -0.220485 -1.011202
1.305285 0.043769 3.791480
-2.220649 1.446414 0.362115
1.191836 1.470423 3.226587
0.911416 0.142086 0.627832
-3.495214 -0.685516 0.290010
1.392258 -0.643577 2.703221
-3.314294 1.202874 1.766456
-5.762583 1.700854 4.862506
0.906657 1.088663 0.731247
0.795745 -0.089846 0.224512
0.897442 1.122638 1.258144
-2.554305 -0.994475 7.288481
1.184165 -0.195893 2.761106
-0.476753 1.368112 2.161426
-4.265199 1.266386 3.561247
-4.159067 2.279329 2.873045
-0.366193 -0.592550 -1.194482
-1.557095 1.284236 1.093060
-3.375696 -0.147334 -0.701501
-6.150021 0.495600 2.898732
0.882493 -0.191221 1.216429
-2.000732 1.421028 0.340235
-3.031680 -0.761792 3.030944
0.984318 0.425828 1.406229
-4.202688 1.583638 3.898811
-7.159143 0.035481 5.141609
1.302312 -0.458459 3.849063
-1.116453 -0.808262 -0.870852
1.235116 0.158470 2.700247
-1.019807 1.277945 1.818294
-1.281740 -0.852963 3.647998
0.813947 0.488163 0.145125
1.167177 0.231642 2.527321
-1.175882 0.351677 -0.880049
-1.415877 -0.801224 3.490312
-5.019321 1.377557 1.228253
-3.999370 1.689917 1.744832
-3.883096 2.253280 2.878166
-3.238468 -0.713339 1.681048
0.835680 0.157129 0.234510
0.964220 -0.015485 0.871435
1.197614 1.494732 3.244239
-5.446265 -0.044600 -0.060508
-4.178105 2.418101 2.875365
-2.408125 1.643201 3.789113
1.142982 0.209723 1.984103
-2.885485 1.697956 3.789621
-3.674068 2.250385 3.447073
1.056612 -0.275370 4.085828
0.857442 0.621991 0.276685
-3.642285 1.447952 0.419719
-0.669834 -0.826291 1.192808
1.670443 -0.340274 3.988079
-4.290911 1.469632 0.069259
1.235985 0.047176 2.779611
-0.124843 2.991874 4.600951
-1.142007 1.258436 1.278777
-2.775740 -0.888743 5.748625
-0.836257 1.219732 1.176676
-0.957849 1.221693 1.749979
-3.126393 1.186761 -0.084833
-0.688923 -0.477887 -1.311969
-3.091136 -0.762128 3.022423
1.069589 0.756905 1.687988
-0.819676 -0.584073 -0.901136
0.996216 -0.077093 1.157067
-4.863906 1.054555 0.535501
1.235457 0.139074 2.929190
-0.643682 0.797124 -0.904127
1.087467 1.127058 1.632674
-2.100133 1.339327 -0.134483
0.853077 0.215888 0.343952
1.011612 -0.112670 1.426882
0.996540 -0.052515 1.176367
-3.305409 -0.158069 -0.699462
-4.063207 1.469426 0.590887
0.995786 0.454551 1.238994
-4.011653 2.330188 2.987703
-1.398562 1.260211 2.329235
1.201478 0.651995 2.505297
0.923418 -0.016310 0.765691
1.106996 1.330786 2.189780
-0.018175 -0.901471 3.542063
-3.443470 -0.555350 -4.161922
-0.728375 -0.510719 -1.420490
-1.252565 1.596277 2.296979
-0.983023 -0.768547 -2.100657
-3.099186 -0.602585 0.598102
0.900851 -1.014463 2.136863
0.370233 -0.849397 -1.057357
-2.037705 1.095521 -0.291987
1.242644 0.915753 3.862194
-1.773634 1.378170 0.429627
-2.040687 1.146900 -0.138547
-3.281899 0.961341 4.004482
-6.814720 1.846072 4.762575
-0.854072 -0.355227 -0.955727
-0.511062 -0.993404 7.067339
-1.096410 0.542378 -0.929745
-6.089173 -0.644981 3.592375
0.259397 1.932205 3.270157
-4.202172 1.646564 3.836920
-4.740868 -0.726672 7.156079
-0.931275 1.294374 0.637247
-1.302096 1.268018 0.783152
1.346258 -0.195393 3.331635
-3.189262 1.207448 -0.084992
-1.172222 0.350989 -0.873233
1.063910 0.941848 1.487777
-1.845421 0.300379 7.014394
-0.961064 -0.839657 -0.132841
1.369468 -0.513266 3.073641
-3.027195 0.887886 0.118548
-0.271339 -0.207309 -0.959991
-3.945605 1.278741 2.039612
0.958177 0.587688 0.849452
-0.695940 -0.854925 -0.173439
1.372190 -0.523188 3.249370
-0.688785 -0.847852 -0.174104
0.977812 -0.158850 1.473388
-0.909129 -0.868816 2.799002
-4.223503 2.264698 3.658225
-0.794465 -0.317522 -0.878289
-5.907173 0.281334 3.030983
1.179167 1.440548 3.193323
-3.365359 1.220475 1.783955
-2.472574 1.643115 0.353650
1.007581 0.587518 1.226736
1.091061 -0.168141 2.075451
-0.811154 0.218193 -1.013759
-2.385473 0.606581 -0.657906
0.990595 -0.158151 1.531016
-6.832108 0.122901 4.565576
-2.687620 1.488593 0.423550
0.412723 -0.307196 -1.136488
-2.646029 -0.794746 4.239732
-0.283936 -0.213376 -1.005484
-3.874165 2.623554 1.743903
0.997556 -0.151080 1.467215
1.026999 0.729648 1.483361
-5.468103 -0.665574 4.838279
-2.238349 1.332688 -0.077206
1.104902 0.075838 2.012540
0.734327 1.817626 4.976247
-5.288200 1.533033 4.606407
-0.792344 -0.889090 3.589331
-4.871196 0.857485 8.863512
-2.207333 0.707569 -0.636663
1.018256 0.811126 1.241411
0.932377 -0.019765 1.172104
-1.253116 0.504613 -0.859235
-1.407311 -0.842839 2.853381
0.391933 -0.293414 -1.069656
-1.037884 1.200403 -0.827990
1.005980 -0.111003 1.584648
-5.227811 -0.641517 4.629201
-4.331589 -0.675273 3.446229
-1.164802 4.676296 5.588219
0.917241 -0.002274 0.787070
-1.205879 -0.677866 2.759068
0.827095 1.749224 5.698976
0.833909 -0.048181 0.244941
1.321691 0.275651 3.548515
-3.270568 0.921836 3.988483
-4.286343 2.207017 3.767694
-1.596683 1.310473 1.103062
-0.370872 -0.296387 -0.930941
1.102579 0.705981 2.033516
-0.543775 -0.807588 7.345404
-0.836647 -0.483435 -0.837700
-1.395822 -0.887758 2.927237
-6.250390 0.162917 5.615374
-6.300799 0.170758 5.635738
-3.172836 1.237894 4.826012
-4.657758 1.578068 3.826077
-4.742616 -0.096903 -0.380989
1.154193 -0.174839 2.350375
-4.506307 1.526891 3.742721
-4.894222 -0.611296 4.485635
1.269989 0.359306 3.488140
-5.266331 -0.686816 6.119642
-1.592549 0.662238 -0.389953
-0.756467 0.082286 3.482507
1.238981 0.681774 3.103135
-6.897039 0.345657 3.190501
1.129513 -0.300678 1.793648
-2.928174 2.165243 4.673150
-1.127401 0.544651 -1.015252
1.040911 1.176184 3.782914
-5.008289 1.597342 1.523813
-0.439558 -0.000136 4.947618
1.326808 -0.374394 3.187177
-4.570238 1.544515 3.766981
0.840117 0.499331 0.340588
-5.742385 1.278075 5.295149
-3.459135 1.637189 5.209855
1.229351 -0.280255 3.423448
-3.359062 1.158653 4.004596
-2.888806 1.700477 3.800932
-6.023373 -0.622706 3.645500
-0.482647 -0.827040 7.259564
-13.883700 4.209521 11.096414
1.094873 0.421070 1.791761
-3.391311 1.256588 1.775719
-4.322655 2.314994 3.736026
0.740764 0.815962 1.715809
-7.103087 2.508653 4.200741
1.240802 0.167465 2.758593
-6.434784 1.402111 6.310819
-0.429311 1.147579 2.127926
0.541217 0.746772 -1.069945
-0.280045 -0.265166 -0.952501
-3.594260 -0.585365 -0.780787
-0.195574 -0.485701 -1.208275
1.073715 0.661427 1.967915
0.978276 0.467449 0.948870
0.865330 0.219835 0.861852
-6.313066 -0.061968 -0.630237
0.904945 -0.200569 1.365301
-0.365802 0.775709 -0.902215
1.125529 -0.257042 2.721210
1.016349 0.097549 1.488657
-3.784486 2.269824 2.737817
1.010451 0.193052 1.484926
-0.500883 -0.917679 2.556034
-3.327817 2.216245 3.596578
-5.207849 0.879944 7.674833
1.014711 -0.160653 1.541767
1.415500 0.365645 6.505531
-2.044935 0.644215 -0.494253
-2.698079 1.285876 4.498518
-1.786227 -2.016914 1.851825
-0.951194 -0.842558 -0.085604
-0.841571 1.302700 0.165759
-6.244119 1.414080 6.139884
-2.491262 1.636139 3.882794
-5.184102 1.598836 0.964568
0.850959 0.413591 0.376576
-6.899694 2.405265 3.217137
1.076262 1.199947 3.821608
-6.825456 2.393831 3.198883
1.488132 -0.872060 3.791079
0.987756 0.460713 1.117271
1.383454 -0.436685 3.331500
-4.804728 2.091768 0.945671
-4.586503 -0.656905 3.457878
-2.965151 1.335442 3.637175
-3.548441 -0.671853 0.317090
0.908695 -0.231316 4.503456
1.146616 -0.178413 2.407955
1.007476 1.616950 3.012306
1.249870 0.683651 3.178540
0.997531 0.441283 1.415574
1.120331 0.315586 2.063689
1.139560 0.716210 2.020916
0.772723 -0.164919 0.414710
-3.776249 2.275718 1.803598
1.072474 -0.240408 2.671214
-3.227275 1.796014 2.258526
-0.624987 0.439536 7.645720
-0.072059 1.800416 2.878370
-1.801260 1.124575 -0.681695
0.028847 -0.388836 -1.281488
-1.023992 0.838486 -0.894362
-0.934595 1.680883 3.184716
-1.456675 1.291203 2.410939
-10.183709 4.879933 13.139671
-2.955597 1.398638 4.483930
1.101549 0.413817 2.038937
-0.151676 0.268393 3.246797
-2.816735 -0.697722 7.263583
-2.695767 0.800706 -0.395089
0.977003 0.470532 1.007055
-6.460905 0.118859 4.438389
1.163786 1.407675 2.287938
-7.485062 -0.149067 4.748440
-1.281983 0.252925 3.893317
0.438800 1.120722 5.219753
0.742815 -0.331643 6.331391
-1.745623 1.349337 0.488486
0.997848 -0.072008 1.156035
-0.859472 1.094933 1.412711
1.008538 0.347919 1.343849
-0.944489 1.225843 1.771518
0.968398 0.047435 1.758695
-1.025386 -0.741680 -1.283676
-4.090561 1.475502 4.238761
1.348870 -0.376234 2.662925
-5.949843 1.337099 6.748727
1.215172 1.302287 3.203143
-4.053870 2.451014 1.948161
-2.705919 1.834612 5.804525
-3.204910 1.281142 8.087849
-5.271745 -0.545163 -2.014862
-2.587156 -0.402518 -1.126841
-0.671407 -0.917282 3.426280
0.995271 0.435549 1.416444
-0.637830 -1.006342 1.241349
-0.458561 -0.199452 -0.954728
-2.386214 -0.205823 -0.869596
-3.724758 1.694950 3.589004
0.996195 -0.140975 1.799567
0.898495 -1.005878 2.135859
-2.829106 1.746948 0.937786
-0.275650 -0.214090 -0.965923
0.819191 -0.175289 0.795391
-6.609119 2.139498 2.842309
-0.656515 1.728721 2.074327
-0.009840 1.851891 3.055758
-2.672157 1.261560 4.071485
-3.991898 1.432655 4.141249
-3.521946 0.744339 7.779959
1.441304 0.976313 3.841571
0.999644 0.061223 1.788236
-4.691042 -0.066716 -0.376965
-5.527660 1.257065 7.619208
-4.264157 1.512676 1.656066
-0.796408 -0.918904 1.095533
-4.458109 1.417832 3.989427
-5.739814 1.049513 6.887290
-1.096130 0.112148 3.493083
-4.297405 1.537728 1.670323
-3.469880 1.891284 1.845529
0.867866 0.214731 0.860223
1.366843 1.626530 4.422274
-1.172614 1.340966 3.707274
-1.122442 0.277339 -0.948945
-2.700377 1.694808 1.435142
1.080689 0.985357 1.663265
0.890499 0.851591 0.245102
-3.535058 0.853120 7.499393
-3.262243 1.189138 3.928941
-7.500597 2.744171 14.617353
0.726703 1.803978 4.964297
-3.084985 1.868459 4.360059
-0.876885 1.274803 1.200703
-0.566707 -0.226911 -0.921974
-2.891650 1.290010 4.356568
-4.330836 -0.724145 8.176167
-1.135335 0.107077 3.606895
1.015492 0.157326 1.686754
-0.902409 1.240058 0.982907
0.210002 -1.055077 5.187876
-0.495446 -0.917422 2.561701
1.102297 1.296466 3.538911
-5.248051 -0.678645 6.084469
1.119414 0.210281 1.925183
-6.487491 2.274932 3.158885
-3.474653 2.262347 1.467785
0.120884 -0.989891 6.128737
-7.056982 0.177943 3.936041
-3.725560 0.908492 -0.169017
1.126964 1.326147 3.559203
-1.132828 0.100739 3.569109
1.309538 0.362308 3.611425
0.425444 1.112965 5.172235
0.059858 -0.466658 2.349703
-6.189273 1.323400 6.871444
-6.417270 -0.840694 6.941055
0.984309 0.845686 3.241115
-1.528453 1.808582 4.774398
1.635972 1.733583 6.697948
1.583764 -0.463212 3.894622
-2.354544 0.594950 -0.368807
-5.779740 1.603918 4.050355
-1.347180 0.664726 4.158440
0.226713 0.442318 2.353455
-4.541765 1.633132 1.762164
1.243647 -0.348527 1.646521
1.338830 -0.393461 3.952421
-3.075944 1.111610 4.325318
-6.650628 2.365128 4.886047
-1.139697 0.101793 3.597836
-0.499478 0.151902 3.369534
1.498186 0.677828 3.604964
1.428314 -0.319891 4.106224
-0.700990 -0.791156 -0.958667
-4.205412 1.468151 0.066790
1.081370 0.576750 1.630242
1.219779 0.810922 7.145169
1.204808 0.658288 3.055913
-0.395908 1.638454 1.995303
-7.082991 0.166552 3.944235
1.112531 1.262403 3.027272
-2.686624 0.790857 -0.383615
-2.997619 1.658262 0.850861
0.963630 0.621869 0.813541
1.772328 -0.383252 6.113098
-1.009211 -0.905766 -0.116938
-5.343408 -0.656065 4.793237
1.015401 0.095375 1.544818
0.810058 -0.099021 0.120691
-3.538595 0.772368 7.851513
0.960094 0.134225 1.661389
0.989428 0.126978 0.939630
-2.997383 1.502612 6.615323
4.184636 -0.327679 0.361857
0.972880 0.468397 1.007192
1.358315 -0.420917 3.120139
-2.647071 1.133704 -0.366181
0.979654 -0.016530 0.936630
1.022954 0.074253 1.809901
-0.844683 -0.512492 -0.922124
1.104473 0.418124 2.044562
0.861128 0.420294 0.848871
-4.913649 -0.155067 8.828854
1.209029 0.083121 1.839809
0.884136 -0.224049 1.274489
-2.416863 0.584497 -0.428287
-1.016336 1.185443 1.575425
0.312283 0.707036 3.699920
-4.426375 -0.386414 -0.314937
-4.690249 1.555351 0.310635
1.027221 0.122123 1.150791
-2.651403 1.979173 4.501922
-1.594568 1.278067 1.071879
1.783620 -1.018283 5.092592
-3.446457 1.539990 6.084741
-5.679622 2.281421 2.747578
-6.661838 1.590845 4.196912
1.137171 1.836703 3.343276
-0.639985 -0.932817 3.452209
1.230169 0.354257 2.865093
1.095653 0.310521 1.634520
0.504994 0.968740 5.245151
-5.370948 1.662180 1.980152
1.258682 -0.336907 2.300442
1.520591 -0.442508 4.467950
-1.542417 -0.204736 -0.791700
-3.906639 1.142959 7.534952
1.000885 -0.024488 1.105778
-2.981710 -0.845214 7.705838
1.263770 0.375341 2.931777
0.863970 0.103488 0.868165
-4.384391 1.560272 1.706955
0.257624 1.062250 4.027042
-1.863786 1.703473 5.692566
-1.560320 -0.208893 -0.800847
-3.583345 2.046501 6.746037
-4.341554 1.304888 3.601230
0.758788 -0.159053 0.388024
-3.852735 0.967620 6.816788
-2.170493 0.886382 -0.566187
-4.246741 1.501069 0.766121
-0.202855 0.923245 3.886455
1.153494 0.942964 2.300172
-0.716862 -0.883485 -0.145815
-0.453586 -0.873518 1.213053
-4.479449 1.228665 3.604337
-3.542733 1.138774 7.851462
-6.346096 1.476176 6.191918
-0.839665 -0.482190 -0.838270
-7.115206 0.202506 3.492410
-3.471920 2.052986 6.737636
-3.276015 1.177787 3.937675
-4.647276 1.430432 8.800110
1.255627 0.929244 3.916512
0.867643 0.105457 0.871238
-3.387010 -3.448378 1.868324
-3.981750 2.333676 2.776176
-4.567298 1.514308 3.719985
-3.598453 0.966159 -0.200583
-3.319937 1.230951 3.995023
-3.479457 -0.126483 -0.600722
1.017694 0.654584 2.012259
1.015673 0.150027 1.720035
1.151955 0.634203 2.444597
-6.903569 0.118210 4.606344
1.019815 -0.313830 2.659622
-5.325949 1.592319 4.227417
-3.091137 1.114896 4.375337
1.073321 -0.160478 1.993733
-3.003314 1.366365 4.700624
1.272913 1.455755 3.434094
-5.544448 1.239794 7.593666
1.015235 -0.111265 1.598907
1.307197 0.142186 3.186770
-3.103352 1.379007 0.271860
1.409833 -0.652278 3.142395
-2.820577 1.115967 4.582323
0.989630 0.475891 1.013046
0.265824 1.170379 4.116385
0.960305 -0.014625 0.923879
-3.465002 1.245085 6.872293
1.056063 0.775034 1.483896
-1.403140 1.196562 -0.796980
-0.708910 0.286401 3.443347
1.394607 -0.663104 3.320817
-3.899992 1.131419 7.522010
1.146167 0.400568 2.235304
0.807208 -0.007110 0.101133
-2.246402 0.595029 -0.672822
0.809722 0.500708 0.024914
-0.717245 0.088520 3.277284
-2.167992 1.975891 6.544693
-3.500155 -0.687379 0.346608
1.417724 -0.750129 3.843545
0.329465 0.899896 5.116035
-2.647110 -0.848286 5.628881
-3.403278 -0.678881 0.281267
-2.187998 -0.793966 4.991178
-4.701431 1.259931 3.867208
1.386249 -0.394556 2.942996
-0.241016 0.023117 1.084600
1.084376 1.097362 2.344334
-5.927112 -0.610420 3.582247
-0.758984 -0.878385 -0.137835
0.993375 0.218408 1.228521
0.845439 1.985894 -0.689044
1.114339 0.403059 1.883021
0.829039 -0.043202 0.244107
-2.540377 -0.395826 -1.129847
-7.020448 2.495897 4.136226
1.357021 -0.365653 2.708945
-3.034269 -0.418908 -0.401453
-3.351195 1.358366 -0.062666
-1.244659 1.248593 1.795300
-4.114895 1.070050 -0.245807
1.399728 -0.336959 5.232051
1.070029 0.537132 1.698906
-0.927817 -0.868722 2.779682
-2.631258 1.708779 4.004195
1.063401 -0.170423 2.271021
0.197936 -0.276502 -1.005433
1.051257 -0.142770 1.814859
-3.668294 2.114863 6.925642
1.771340 -0.741244 6.595845
-5.306701 -0.704357 6.201144
-5.275993 1.154137 2.986825
1.265968 1.455916 3.418610
1.059075 1.436614 3.748335
-1.716338 1.196073 -0.699708
-0.386978 1.841319 2.063963
-3.819549 2.201867 7.145466
0.930216 0.913629 1.307708
1.437908 -0.759275 3.798241
1.100338 -0.165471 1.989773
-0.904114 1.164216 1.704750
0.671421 -0.174333 -0.045006
0.988370 0.217390 6.818835
-2.985154 2.011046 0.585437
-0.838201 -0.678667 -1.792629
0.360948 0.897680 5.714708
-0.713036 -0.865343 -0.171016
0.950073 0.776725 1.064947
0.910967 -0.003378 0.781762
-0.998461 -0.899537 2.851207
0.821227 -0.102507 0.228191
0.971028 -0.156888 2.368729
-3.385536 2.056047 3.358619
-0.452948 -0.876931 1.215965
1.233639 1.532168 1.713709
-4.760694 1.586493 0.331005
-1.290337 -1.157183 0.025831
0.264338 -0.761875 -0.422123
-4.421985 0.964626 -0.054587
1.186660 -0.023091 3.423815
-0.660923 0.816583 -0.938278
-4.763556 1.519651 1.574959
-4.722935 0.729422 7.208240
1.097153 1.488629 2.064206
-5.776756 1.056001 6.896275
0.856900 0.843133 -0.490429
0.990285 -0.158145 1.518484
1.150435 1.402184 2.233080
1.137774 0.217052 1.971826
0.996693 0.456366 1.240421
0.877647 0.834820 0.264952
0.911996 -0.049274 0.749046
-1.171340 1.155016 1.681394
-3.905058 1.124807 7.491926
1.393586 -0.393068 2.887412
1.158695 1.848811 3.267656
-0.734607 -0.877962 2.911555
-1.709250 0.973270 4.318133
1.216169 0.367229 3.433832
0.841440 0.152105 0.248530
-2.916568 1.152848 7.280023
0.975109 0.595586 1.026474
-0.445312 -0.208604 -0.929576
-0.268924 -0.941660 3.810641
0.742747 -0.157791 0.400356
-4.586856 1.262497 3.704229
-0.109609 2.009701 3.321254
-3.663827 2.085429 1.713440
1.511233 -0.719236 3.233798
1.180979 -0.381193 1.912586
-6.766998 1.870157 4.228224
-2.800910 1.635902 3.737130
0.852001 0.496294 0.222138
-3.567247 1.427080 6.184640
-2.777321 1.802755 4.160262
-1.443803 -0.867105 3.263646
-3.645994 2.238583 3.428083
-2.425482 1.582161 3.821531
-1.116675 0.932700 -0.875723
-3.542703 2.012682 1.561562
1.087291 0.712082 2.282966
0.882422 0.423874 0.875452
-0.735276 -0.882864 2.930780
-0.530218 -0.989218 1.230712
0.680637 -0.146554 -0.018763
-7.383284 -0.034109 2.997396
-0.506444 0.153795 3.407349
0.870922 0.009807 0.307949
1.269140 0.705558 3.230120
0.357632 0.899907 5.212370
-3.987496 1.153705 7.645451
1.114626 0.426027 1.773552
-2.894787 1.432578 -0.133070
-3.044460 1.719453 7.418671
-0.440338 -1.023435 2.706733
-5.875788 -0.602094 3.548270
-0.732765 -0.880483 2.926345
-4.883731 -0.755406 7.360074
-0.486000 -0.250629 -0.926563
1.140695 0.012576 2.288307
-3.119261 1.200544 4.725732
-0.917429 0.851676 -0.899119
-0.685740 -0.847753 -0.135590
-4.719100 1.507665 0.682496
-0.240084 -0.932606 2.496156
-4.255557 -0.669579 3.410522
-4.018155 0.847283 7.139752
-3.285307 -0.225563 7.964617
-0.787586 0.102766 3.572401
-2.480101 0.947681 6.103309
-0.040359 -0.979210 3.794353
-0.690288 -0.848707 -0.173063
0.952642 0.080996 1.569149
0.732030 -0.967013 6.996915
-4.392980 -0.620540 8.178477
-2.172112 -0.885959 6.678932
-1.422486 0.985547 -0.516072
-4.333435 -0.726896 4.395691
-0.913577 -0.725166 -1.967808
-1.469216 -0.219189 -0.843161
1.278097 -0.354575 1.686397
1.118805 0.206601 1.802901
1.347094 -0.363281 2.797044
-0.876279 -0.930144 -0.113559
-2.736772 1.769755 4.093393
0.975644 -0.156520 1.761194
1.459885 -0.669794 2.790156
-4.039899 0.982363 7.174402
1.009526 -0.076421 1.197406
1.089275 -0.128294 2.015497
-6.716907 0.292506 3.018058
-2.594224 -0.857843 5.599215
0.998121 -0.032644 1.220862
0.988959 -0.077716 1.152868
1.135890 0.203680 1.973609
-2.855210 1.634361 0.877870
-6.533995 1.661013 4.701316
0.268201 -0.896769 -0.454492
0.261816 -0.885996 -0.437935
1.088984 0.759174 1.683234
-3.409949 2.251370 1.796567
0.827942 0.261440 0.160033
0.897357 0.315059 0.568282
1.197973 -0.300510 4.191934
1.409069 0.521870 3.661366
-4.349669 1.487864 0.065600
0.788341 0.161599 -0.017093
-0.069395 1.944190 3.058485
1.125049 -0.157173 1.986752
-3.964556 0.975943 8.407747
-3.547825 -0.712689 0.250454
1.278797 -0.344612 2.744054
-1.462518 -0.235967 -0.876818
1.059434 0.775151 1.490128
-0.702790 1.801325 2.148623
1.018506 -0.027936 1.113158
-2.890364 1.358074 0.608723
0.746049 -0.156185 0.373738
-0.165146 0.728699 3.255384
-2.626537 -0.858868 5.663274
-3.810973 1.447891 4.355832
-2.281803 1.569390 3.429525
-6.767379 0.088530 5.036434
0.969346 -0.140867 2.068978
-3.455642 1.382171 0.535784
-2.713159 1.604421 6.539284
-0.274862 -0.951550 3.841253
-1.902270 2.771185 4.600869
1.369996 0.992416 3.586121
-2.886357 1.660749 1.375350
1.273102 1.111378 4.073521
-2.786437 2.154703 0.569465
-3.720754 2.344733 1.968639
-6.561692 0.845407 5.920392
-3.088116 0.593132 7.941339
-3.083812 -0.274105 7.759654
-0.891401 -0.857608 2.756531
-2.945549 1.705376 0.900236
-0.935931 0.887324 -1.100548
-0.181593 0.802807 3.451380
-0.216099 0.208660 3.278165
1.543084 -0.708584 3.357510
0.454546 1.078010 5.168083
1.011647 0.118380 1.107974
-0.789339 -0.277886 -0.936172
1.124381 0.215246 1.806562
1.505791 -0.390961 6.690086
1.413838 -0.743321 3.838538
1.146931 1.345132 3.586414
-3.857730 -1.095615 9.882382
-0.119023 2.034154 3.364831
-2.715920 1.836793 4.116770
-4.984875 1.458560 1.638158
0.870521 0.539009 0.858541
-3.213789 -0.732703 1.685880
1.204326 0.030534 2.648325
-1.942802 0.768898 -0.450222
0.977998 0.237123 1.056811
1.036679 0.058167 1.838669
-0.452970 0.893183 -0.945981
-2.392031 1.405183 -0.120031
1.202853 0.192149 2.362591
-0.945946 1.293354 0.985437
-2.804938 0.490011 7.026555
1.163525 0.141320 2.516457
-0.985502 -0.901146 -0.093347
-3.257384 -0.642932 0.471581
1.092115 -0.132328 2.018807
-0.938182 0.864726 -0.886078
0.806921 0.271170 -0.023477
-3.073979 1.340005 0.351921
-2.362236 0.601511 -0.624535
0.962980 0.287941 0.980262
-2.253669 -0.827230 5.268641
-6.893560 2.425606 4.027296
-3.254841 1.507470 3.445160
1.204385 1.044264 3.750248
1.244558 0.375814 2.892281
-4.139931 1.515665 0.481267
-3.018622 1.132831 4.584379
0.897338 0.476437 0.527521
1.244401 -0.467496 1.899276
-5.103971 1.540627 0.963207
-9.699603 -0.176988 -0.908994
0.157596 -1.018430 6.169342
-4.351593 1.493727 0.070035
1.060132 1.095422 1.797917
1.054196 -0.234892 2.221196
-2.650448 -0.805636 4.288917
-0.457187 -0.883704 1.200774
0.981313 -0.014401 0.940390
-7.029428 2.476352 4.205899
0.221280 0.268856 3.608894
0.859746 -0.012232 0.428480
-2.110967 1.529719 0.163736
1.128278 0.178424 2.163436
-3.830148 1.144829 7.966184
-1.553840 1.263453 1.112012
-0.807467 0.221996 -1.003085
1.122929 0.111517 2.553977
1.076225 0.539981 1.699934
-0.453160 -0.875982 1.208529
1.073165 -0.146987 2.304903
1.572943 -0.920351 3.908294
1.273529 0.543487 2.719227
1.115036 0.321282 2.058672
-1.578784 1.390258 4.738490
-5.704571 1.580659 4.927727
-0.462974 -0.875916 1.207206
0.816561 0.271518 -0.028685
-1.113017 0.550855 -0.991199
-2.589378 1.680987 3.915411
-0.295386 0.042384 3.843997
-0.183459 0.044029 3.273072
