ply
format ascii 1.0
element vertex 1701
property float x
property float y
property float z
end_header
-1.516391 0.664751 -0.750239
-2.450216 1.306520 6.016350
1.012838 1.370295 3.586059
-2.143043 1.948462 0.272217
-1.031149 0.284714 -0.845256
-2.978361 1.490446 6.566093
-3.147371 2.098008 3.408342
-0.712325 -0.791355 -0.927897
-1.211082 0.299203 -0.825989
-0.576039 -0.465691 -1.272940
-2.994911 -0.463772 -3.290251
-1.019493 0.807323 -0.933898
-1.471721 -0.623610 -0.870860
1.200956 0.220823 2.674772
-1.023906 0.468421 -0.841456
-5.167964 1.628309 1.867735
-1.082884 1.236546 1.207969
-1.031456 0.530020 -0.877769
0.906678 0.876350 0.395593
-4.349737 -0.042804 -0.354894
1.162171 0.399607 2.376274
1.030709 0.152130 1.939906
-0.951173 0.389290 -0.840032
0.783095 0.019499 0.729779
1.279523 -0.342448 2.656136
-5.384495 -0.646923 4.614136
-1.204387 0.531337 -0.813263
-3.461611 1.371601 -0.331670
-0.892853 -0.608821 -1.831208
1.497086 -0.438041 4.544282
-0.771412 -0.762601 -0.863232
-2.428095 0.605374 -0.401859
0.797730 -0.004961 0.421731
-1.468766 0.246456 -0.804427
0.225219 -0.745901 -0.502084
-0.972415 0.207837 -0.842354
0.751439 0.127411 0.399699
0.794732 0.493963 0.073283
1.063611 1.073921 2.287728
-2.714340 1.269818 4.357536
-1.407268 0.539157 -0.773556
-0.558683 1.897232 -0.824732
1.273098 -0.295196 4.110431
-1.207662 0.227866 -0.806687
-1.533133 0.661185 -0.454890
-2.739044 0.664574 -0.424791
0.302975 -0.291053 -1.011481
0.616934 1.749790 4.509533
1.119301 -0.360393 1.820622
-3.378663 0.839266 -0.165639
1.253300 -0.199006 3.120291
-5.644680 1.257889 7.659688
0.743981 0.158235 -0.021094
-0.727960 1.114458 -0.938195
-0.862457 -0.652044 -0.965295
-2.539973 0.750480 -0.362262
1.341053 -0.422008 2.984952
-2.107120 0.481566 -0.588326
-1.040077 0.782115 -0.839280
-2.452350 0.615634 -0.428224
0.084144 -0.344384 -0.988489
-2.246210 0.544701 -0.415534
0.836512 0.409324 0.823566
0.941208 0.429454 1.173685
-2.982202 1.356883 0.229031
0.647458 -0.140914 -0.019842
1.039508 1.077354 1.560563
-4.284338 0.728492 7.810272
1.096305 0.010622 2.194384
-1.558531 1.248188 0.729587
-1.259114 0.920396 -0.535768
-1.366996 0.948176 -0.500720
-2.814080 1.394290 -0.240283
0.889845 0.943680 0.379466
-1.077369 0.801465 -0.849083
1.046124 1.035840 2.286483
-0.945652 0.774216 -0.824580
1.335492 0.632804 2.370552
0.821154 0.148788 0.296791
0.916850 0.273195 0.934310
-0.018531 -0.906260 3.607561
-1.562967 1.158469 -0.222582
1.111603 -0.109457 1.936802
-1.789440 1.249369 -0.037267
1.751179 -0.994281 4.941256
0.879053 0.138361 0.600387
0.793836 -0.047266 0.231434
-2.725228 1.594145 3.579129
-2.760376 1.367757 -0.227985
1.360389 -0.624531 2.612473
-1.183681 1.163174 1.684299
0.829949 0.006696 0.292868
1.180723 0.128348 2.747250
-2.172310 1.097625 -0.291129
-1.905234 1.030488 -0.276683
0.849441 0.725633 0.827655
-1.133733 1.172827 1.005693
1.278406 -0.349898 3.056826
-1.623484 0.503650 -0.594323
-3.464966 0.847274 -0.140489
-0.828005 -0.952892 7.221204
0.242450 1.774266 3.063508
-4.928873 -0.597552 4.455881
1.460847 0.039968 2.789965
-2.947943 -0.257287 7.392667
-1.435550 0.642268 -0.471211
0.808836 0.234977 0.315592
0.300450 0.451254 5.415041
0.127474 -0.986318 5.970711
1.229151 -0.286658 3.624697
-1.624642 1.029567 -0.492776
-0.949464 -0.284540 -0.800052
-0.049732 -0.935533 4.828320
-11.482509 -0.112664 -3.844351
-1.828827 1.012272 -0.401958
0.816078 0.482340 0.355031
-0.397316 0.145049 -0.907530
-0.182655 0.098401 -0.986130
0.867293 0.001350 0.597859
-0.773503 0.311836 -0.892509
1.033113 1.390922 1.418768
0.832918 0.495585 -0.052440
-0.727860 0.192857 -0.888371
0.140524 0.022187 3.131917
-0.863411 0.853665 -0.952081
-0.163595 0.766345 3.155653
0.784627 0.333120 0.125834
-0.699608 0.568513 -0.873385
0.828706 0.166177 0.118188
1.090417 -0.290364 1.716110
-4.028813 2.074270 3.562860
-0.853175 0.562213 -0.847675
0.971712 0.091836 1.422692
-0.491140 -0.916111 1.180526
0.785493 -0.167662 0.783254
-0.808547 0.566445 -0.869706
0.953849 0.437599 1.185116
-1.227394 -0.826121 3.489466
-3.590915 1.387984 0.420226
-1.193293 1.182037 1.487910
-1.315958 1.565900 4.130665
-0.875738 1.130994 1.431696
-3.326010 -0.375519 -0.871400
-3.485010 2.122001 3.275066
-0.811383 0.886275 0.916133
-0.936998 -0.775509 -0.088369
0.975515 0.088554 1.431479
-0.861139 0.797114 -0.836315
1.045757 0.750031 1.607944
-0.868218 1.192141 0.930602
-1.090492 1.200920 1.216001
-0.674191 -0.834749 1.176150
-1.122703 0.334529 -0.837006
-0.829182 1.069380 1.550592
-1.203198 1.189592 1.483356
-1.005719 1.138503 1.507195
0.489131 0.954098 5.070570
-1.203208 1.229033 0.969287
-6.673470 2.423060 4.099402
-1.189213 1.172245 1.688165
-5.263246 0.935798 6.452296
1.206304 -0.187116 2.305906
-0.420535 1.986115 2.212540
-0.414944 1.578578 1.963365
-1.561235 1.245067 0.837368
-0.469873 1.172551 2.132978
-0.854430 -0.759899 0.085075
1.112882 0.413323 2.043051
-0.187591 0.301851 3.088813
-1.075706 1.940894 3.663816
-1.069779 1.195953 1.219366
1.078951 1.308894 2.111580
-4.744267 1.302719 1.166743
-4.195933 -0.762023 7.715515
-1.684882 0.523377 -0.526487
-0.472673 1.367091 2.151462
-0.412665 1.111032 2.059843
-2.180949 0.497117 -0.610986
1.106032 1.494453 2.059610
-0.436451 -0.854178 1.119912
-4.691027 1.513610 1.467611
-2.130072 1.370641 0.051933
-3.057423 1.171894 3.756257
-3.718217 1.565627 1.625203
0.397300 -0.892599 0.016963
-2.649897 1.526025 0.851142
-4.188644 1.480680 1.642972
1.160761 1.343598 2.133771
-1.550124 1.223903 -0.485941
-0.633159 -0.786541 -0.457080
-3.692699 1.348370 0.468207
0.363019 -0.766626 -0.951777
0.185005 -0.264723 -0.957352
1.241570 -0.154284 3.183120
-3.684330 1.260408 2.127548
1.039750 0.546099 1.605962
1.098610 0.167818 2.124321
-2.706762 2.015842 0.779244
-2.976326 2.188158 0.925088
-0.843998 -0.484506 -0.841060
1.091803 0.048075 2.061642
-1.741206 1.366131 0.334905
0.913207 -0.013564 0.831276
-2.290529 -0.363192 -0.917504
-2.111598 1.373577 0.350318
-3.362823 2.030555 1.884814
1.237438 0.030534 3.428229
-2.962131 1.311013 0.257898
-3.073728 1.488021 0.974282
-2.115600 1.266283 -0.073722
-3.295211 2.154284 1.389622
-1.365464 -0.944530 3.945996
-1.190708 0.479714 -0.816320
0.348102 -0.814624 -1.139715
-3.135547 1.442892 0.310202
-2.071343 1.460854 0.332596
-0.926714 -0.512207 -1.077220
-2.396534 1.135806 0.429515
-2.841866 1.246614 0.526057
-0.698575 1.781003 2.106978
-0.992669 -0.714780 -0.841082
-0.875217 -0.697680 -1.875719
-2.012102 1.261476 -0.111525
-2.585303 1.379113 0.110239
0.874226 0.820449 0.196986
1.150666 0.210463 1.812585
-2.559875 1.345725 0.452271
-1.470518 1.214539 1.036384
1.357396 1.449785 2.464031
-0.734155 -0.274379 -0.858094
0.748125 -0.153021 0.378101
-1.122298 1.157023 0.991289
-0.428149 1.127702 2.076546
-7.348459 0.340599 3.501583
0.941154 -0.073189 1.098351
0.987057 -0.138246 1.721209
-3.994388 -0.714043 7.371065
-2.230448 -0.191091 -0.800637
1.022411 0.072686 1.784305
1.301604 -0.364327 2.763698
-3.235826 1.590787 1.791444
-3.191625 1.508035 1.523383
-5.893194 1.300508 2.927456
-3.947114 2.158700 2.727453
1.205123 0.134430 2.789841
-3.297155 2.139557 1.715381
0.849671 0.582616 0.381376
0.947006 -0.017472 1.061690
0.817041 -0.097635 0.561120
1.314163 0.027185 2.780362
-4.613171 2.591265 3.216092
0.741422 -0.092821 0.396260
0.857388 -0.013267 0.506564
0.873332 -0.055467 0.584644
-0.951516 -0.516536 -0.807288
0.792964 0.597953 0.149373
-5.329796 -0.569548 3.334726
1.140015 -0.341869 3.837308
0.780511 -0.108403 0.785672
-0.830039 -0.568053 -0.855471
0.790945 -0.166644 0.786462
-3.187835 -0.154496 -0.679165
0.895301 -0.006170 0.763515
-3.429100 1.023064 7.159628
0.946301 1.141002 0.650815
-4.184315 2.014157 3.411064
0.769415 -0.097319 0.113374
-1.446983 0.245811 -0.789122
-3.749626 -0.670824 3.793049
0.766854 0.923296 6.428353
-2.663665 1.242886 0.363008
0.800528 -0.117376 0.216630
0.942513 0.132650 1.610291
0.866650 -0.974915 2.055769
-2.001585 0.809301 -0.453496
0.872651 -0.196875 1.297663
-3.048045 1.155251 -0.085080
0.803314 -0.208249 0.911250
-1.482499 1.161361 -0.181794
0.966885 -0.157199 1.469519
0.955803 -0.073955 1.105024
0.920262 0.450182 0.772637
0.906061 -0.202866 1.657259
0.105712 0.057616 3.410694
-5.264870 1.390983 4.699889
-1.362773 1.123496 0.988472
-0.773047 -0.549613 -0.849254
1.041454 -0.059365 2.013711
-0.957870 -0.486482 -1.050678
-2.940486 1.055630 4.153232
0.803136 0.373442 0.352732
-4.831574 1.489166 0.923297
0.276349 -0.000500 3.139321
-1.592835 1.182074 -0.226787
-0.774949 -0.551328 -0.851209
1.231265 -0.509755 1.710815
-3.105500 1.317118 5.487837
-3.609566 2.177451 1.723251
1.373067 -0.632264 2.641772
1.563996 -0.544287 3.222992
0.576522 -0.935216 0.155024
1.078349 0.763776 1.404761
0.564435 -0.916177 0.166108
-3.425303 1.551905 3.199761
0.190610 -0.934706 0.711786
0.119388 -0.299152 -0.663222
0.979666 0.082764 1.330475
-0.747999 -0.856245 3.423820
-0.943580 -0.846809 -0.100355
-1.885976 0.613309 -0.548671
-0.771965 0.211484 -0.963334
1.408272 0.213436 3.604641
0.630782 -0.164364 -0.043404
-3.496287 1.043509 7.287457
1.110057 0.286704 0.929429
-0.929988 -0.929486 6.977991
0.869471 -0.000964 0.593737
0.880087 0.177512 0.879218
0.812671 0.203585 0.324051
-1.298814 0.603856 3.856217
0.851420 0.002647 0.355611
0.878976 0.936428 0.618156
0.833624 0.505637 0.789792
0.992510 0.780790 0.771285
0.833746 0.399375 0.827671
1.226021 0.279191 0.075304
0.864390 0.616758 0.238054
0.126237 -0.308505 -0.693086
1.354396 0.570581 3.620675
-0.478959 0.999558 -0.877465
-3.306887 1.324562 5.769624
0.799665 0.160204 0.801708
0.849261 0.442894 0.297522
0.743634 -0.080693 -0.025286
1.055450 0.563617 1.573315
0.970970 0.115336 1.169565
1.074499 -0.287623 1.708580
0.890514 0.752857 0.868505
0.947688 0.207056 1.172222
-2.517423 1.459285 0.058743
1.020508 1.038766 1.277592
-3.487013 0.849872 -0.147574
-0.341164 -0.318161 -1.262336
1.076156 0.395826 1.849501
-2.174601 1.683355 0.644153
0.846530 1.060455 1.114007
1.010094 1.354923 1.380085
-1.669249 0.812039 -0.634258
0.984751 0.721420 1.388395
-0.827434 1.203259 1.138932
1.057490 1.104713 1.526882
1.039630 0.924307 1.604667
-0.903094 -0.787222 -0.117170
0.753198 0.214155 -0.015484
0.931847 0.071348 -0.151036
1.037928 -0.123163 1.921118
-1.387275 1.031168 -0.589864
-3.371954 1.384651 0.437233
-2.378514 0.958321 -0.294341
0.950185 0.418422 1.341773
-4.712740 1.518368 1.450768
0.942283 0.233747 1.014196
0.771013 0.489372 -0.012375
-0.199509 0.731474 -1.144925
-2.523163 0.761979 -0.364576
-0.153892 -0.352667 -1.021627
-3.661420 1.546794 1.601343
-0.962236 -0.517407 -0.808336
-5.410298 1.205659 7.441017
-0.489315 -0.911251 1.181340
0.941781 0.771385 1.045665
-1.394562 -0.221905 -0.831979
-0.964783 -0.272320 -0.870628
-0.438544 -0.843617 1.158800
-0.536443 -0.238752 -0.875231
-0.691407 -0.412710 7.143103
-1.908958 1.361714 0.306629
0.766987 -0.097071 0.114185
-6.656464 0.101557 3.726293
-0.792078 -0.621478 -0.856503
0.816886 -0.914055 -0.687857
0.286076 0.910702 4.895011
1.337735 1.221839 3.510050
-1.035417 0.284826 -0.847410
-3.193261 1.637913 1.789251
-0.965137 0.209051 -0.834821
0.860035 0.950907 0.458233
-0.874267 -0.779973 -0.096053
1.026486 -0.232021 2.478641
-1.013731 0.517117 -0.855925
-4.384642 1.484947 3.599185
-1.973393 1.376404 0.021440
-1.217945 1.191006 0.940064
-1.182620 1.324538 0.864967
-0.731141 0.195794 -0.891508
1.379471 0.672367 3.151960
-0.430502 1.734221 1.883917
-0.706103 0.571368 -0.882096
1.201096 0.115881 3.097178
-0.737460 1.210854 0.165211
-3.096003 -0.677215 1.580157
-5.646258 1.200285 5.614632
0.647276 -0.166011 -0.046375
-1.207306 0.515978 -0.836943
0.209198 -0.824518 -0.496607
-1.045231 0.290236 -0.851004
-2.049372 1.609646 0.389972
-2.551955 1.345746 0.445916
0.820340 0.006072 0.293137
0.829661 0.009340 0.300690
-1.255851 -0.667822 -0.544180
-3.799747 1.368104 0.580222
-4.384377 -0.559574 3.201443
1.037749 1.049080 2.236977
0.796390 0.150682 0.224932
0.937833 0.212890 1.164759
0.840533 0.715554 0.824540
0.965707 0.094595 1.064249
0.841580 0.515707 0.790987
1.593402 -0.685948 6.278938
0.937722 -0.112157 0.642625
-3.269894 -0.685670 1.605605
-1.274183 1.246105 0.761314
-4.376034 1.478845 3.604672
0.742300 -0.095593 0.397048
0.836676 0.151874 0.307472
0.806812 0.585805 0.260558
1.114783 -0.270556 3.775982
1.181867 1.678868 20.924818
-0.780944 -0.567402 -0.853172
-0.905792 -0.785665 -0.095565
0.909216 -0.011076 0.552503
-5.851697 0.475264 2.730947
0.870289 -0.056948 0.585709
-1.953856 0.805576 -0.461626
0.962788 0.074096 -0.156596
0.946473 0.420238 1.174358
0.873652 0.783142 0.536173
0.937442 1.497469 2.805401
0.794052 -0.042169 0.231430
0.832980 0.641960 0.081509
-2.722736 -0.759105 4.043872
0.784509 0.244958 0.146949
0.959359 -0.023984 1.061946
0.951155 -0.119003 1.055463
0.648989 -0.048510 0.782844
-3.722519 -0.554894 -1.703509
0.837268 0.151515 0.305419
-0.615223 -0.297565 -0.908238
-1.232727 0.237822 -0.847513
0.554628 -0.849401 -0.598448
1.214618 1.497465 1.668369
0.600474 -0.931265 -0.669901
0.773875 -1.105266 7.056025
-1.923117 0.605399 -0.464392
-0.194471 -0.957548 0.509275
0.885688 -0.040234 0.716788
-4.351092 -0.063427 -0.331784
0.759300 0.189298 0.373016
0.314728 0.559099 6.318778
0.859964 0.305837 0.516724
0.966760 0.249716 0.810698
-0.705863 -0.864232 1.194738
0.823314 0.402288 0.818287
1.144248 -0.273953 3.805663
-1.208760 0.302127 -0.831627
0.787046 0.256471 0.106805
0.800864 0.233236 0.315957
0.822202 0.396752 0.818900
-2.655537 1.544842 3.740064
-4.151650 1.703322 0.733044
1.174155 0.866725 3.673748
0.861326 0.272188 0.211612
0.563286 -0.866540 -0.619886
0.646178 -0.164799 -0.043675
-1.257128 0.500357 -0.723818
0.784174 0.333988 0.127735
0.809349 0.420084 0.286543
-5.906716 0.160690 5.302230
1.028383 0.548249 1.548695
0.818256 0.485215 0.357250
-2.834272 0.836540 0.115329
1.011988 0.117103 1.113963
0.937501 0.231906 0.762562
0.803989 0.204810 0.326593
-1.944092 1.254884 0.057437
0.944317 0.210862 1.173635
0.988035 0.715787 1.405626
-0.771289 -0.552055 -0.844199
1.147312 -0.365450 2.011908
-0.985218 0.219640 -0.869348
-1.918106 1.348670 0.306844
0.809754 -1.160290 7.284033
0.350314 0.976296 5.421022
-0.615233 -0.300808 -0.913186
-0.786657 1.187275 0.649694
-2.527768 1.320147 0.433162
-0.970195 0.793831 -0.845082
-0.823389 -0.374184 -0.849516
-0.889512 1.185414 1.473309
-1.378794 1.218302 2.277541
-0.808629 -0.633206 -0.884128
1.487970 -0.810367 4.362383
-2.734091 1.591019 0.855616
-2.143615 1.474048 0.035652
-1.683638 1.055032 -0.525643
1.360974 -0.664169 3.180600
0.960712 0.538139 -0.095913
0.742920 0.156280 -0.018479
-0.258737 -0.920014 3.650570
-0.455238 0.068262 3.208951
-4.583899 -0.704346 6.795843
0.940900 0.216542 1.172329
0.820966 0.466233 7.464739
-0.829382 -0.498879 -0.900275
1.021825 0.080323 1.780463
0.991675 0.111358 1.092019
0.806397 0.483106 0.209207
-0.663333 0.272274 3.249285
0.814309 0.381319 0.357235
0.913485 0.718998 0.715796
1.040529 0.440012 1.091566
-11.137473 5.338615 14.365817
-2.105467 0.556900 -0.614076
1.105543 -0.250784 2.832254
0.822061 0.006048 0.295476
0.785124 0.246871 0.147286
0.745075 0.155060 -0.019124
0.755805 0.183841 0.401386
0.895901 -0.003652 0.765863
1.818874 -0.667360 6.892543
0.790087 -0.171336 0.805082
1.196056 -0.504664 2.168554
-1.349351 -0.225287 -0.796330
1.064572 0.198274 1.836834
0.823920 0.583047 0.360258
0.554885 -0.897833 0.163226
-3.692432 1.404574 4.215156
-5.463308 -0.563986 3.317166
0.776567 -0.096502 0.110502
-1.115662 0.334203 -0.830963
1.137749 -0.031232 3.289697
-0.460771 -0.206050 -0.964305
0.866364 -0.187315 1.179572
-0.504432 -0.978276 6.987689
0.809662 0.237948 0.315764
-0.915239 1.172775 1.472821
-3.407497 1.170012 7.936470
0.788882 0.247870 0.149501
0.822934 0.171205 0.777139
-1.069231 0.264183 -0.933345
-1.029311 0.222317 -0.852032
0.815502 0.011028 0.302436
0.727632 0.005911 0.395188
1.383125 -0.587950 3.967536
0.976501 0.106775 1.170498
-2.029965 0.908827 6.458677
0.834411 0.010722 0.336935
0.023344 0.296773 6.839418
0.795750 0.239658 0.313349
0.821683 -0.038257 0.324241
-3.241928 -0.642578 0.283186
0.911052 0.237208 0.763563
-3.915480 1.426226 0.555532
-4.472966 -0.550920 4.216071
0.959993 0.250433 1.006542
0.791906 -0.168381 0.811458
0.817272 0.497193 -0.054257
-2.983563 1.192451 7.547254
0.347881 -0.809744 -1.001976
-3.895984 -0.366454 9.496231
-0.319934 -0.457078 -1.087247
0.652460 -0.163264 -0.045976
-1.267256 1.261911 1.000843
-1.921705 1.363052 0.319987
0.737994 -0.154900 0.357873
1.073100 0.204194 1.865409
-1.169742 1.185824 0.997594
0.781163 -0.094375 0.215952
-1.371884 1.031506 -0.568444
-2.226631 0.570166 -0.586458
0.956034 0.422688 1.354634
0.952459 -0.011261 0.969361
-0.342282 0.728857 -0.833512
0.731147 -0.154842 0.400954
-2.225140 1.179083 -0.103974
1.241615 0.682489 3.108081
-4.462701 -0.686379 6.798976
0.963529 0.114557 1.055023
-3.667181 0.888253 7.774259
0.617620 -0.087359 0.344644
0.921706 -0.209776 1.665262
-2.352603 1.218013 0.398624
0.947415 -0.005289 0.776535
-6.569144 -0.093798 3.694404
-0.861112 1.186120 0.932578
-1.250689 1.234380 0.986048
1.272614 -0.302548 4.626215
-2.457849 1.515783 0.416033
-0.733333 0.575785 -0.944806
-2.645911 2.134820 0.778055
-2.359711 1.265888 -0.343164
1.011304 -0.051695 2.005471
-2.524427 0.607673 -0.436307
-0.399639 -0.303835 -1.448015
-0.445389 -0.844146 1.145478
-0.839870 -0.331696 -0.995879
-1.533732 0.683161 -0.759407
0.821921 0.253413 0.147506
0.959836 0.538941 1.185106
-1.237730 0.244944 -0.854228
-6.651770 0.152543 3.717569
1.109609 0.055402 2.102286
0.932428 0.403490 1.332066
-1.227922 0.530508 -0.863318
1.363184 -0.649760 3.203873
0.917655 -0.060749 1.070541
-4.075598 1.335490 3.648938
0.965271 0.562459 1.175392
0.788761 0.472892 0.129794
0.861101 -0.963783 2.049102
0.762505 0.665347 0.481867
0.186248 -0.263780 -0.953796
0.824923 0.274117 0.105879
1.184965 1.275319 3.100428
1.147308 0.140618 2.578866
0.792278 0.139460 0.220019
-6.842051 -0.051445 -0.367020
-0.995878 0.987476 1.262634
1.316545 0.502335 3.067798
-0.519204 -0.658360 0.927589
-0.381972 -0.323336 -0.923377
1.216092 -0.378341 2.926649
-0.501434 -0.277226 -0.894890
1.372956 -0.755894 4.156976
-1.405659 -0.594989 -0.828743
-6.712637 -0.049835 2.792342
-2.500046 1.402274 0.410259
-0.410804 1.571646 1.951863
0.827507 0.702049 0.817021
1.041239 -0.360920 6.821354
0.756903 0.153182 -0.017915
0.617799 -0.088954 -0.008800
0.815135 0.481797 0.355324
0.996368 0.363251 2.085958
-0.881253 1.257889 4.624337
-4.758592 1.245972 6.899753
-6.141495 1.414481 2.928685
0.994495 0.080693 1.455688
1.061055 0.391785 1.963280
-0.935052 -0.397869 -0.787287
-0.949076 1.746346 7.439045
-0.591011 -0.297646 -1.141547
-1.467512 -0.632790 -0.894967
0.740701 -0.158962 0.787995
-14.758224 4.476556 11.791540
0.656055 -0.160582 -0.041161
-0.896028 1.229568 0.939853
1.114374 0.072103 3.805259
0.651238 -0.140961 -0.018315
-3.630291 1.463438 0.439113
-0.909343 -0.315901 -0.755015
1.075980 -0.156022 1.354261
0.999219 -0.138745 1.799573
-0.790667 -0.317163 -0.882365
-4.029245 -0.635590 3.195992
-0.619828 -0.694195 -0.890095
-0.670173 -0.755074 -0.916119
-0.776583 -0.560080 -0.850506
-0.673679 -0.805171 1.210049
0.866537 0.665803 0.082456
1.203572 -0.410186 2.226501
0.964980 0.547382 1.198338
0.937818 -0.072671 1.097242
-3.476271 -0.667241 0.266939
-6.895735 2.633692 5.140154
1.098948 0.010557 2.181888
0.902787 0.658401 0.285446
0.730229 -0.097968 0.395392
-1.023926 0.769944 -0.792114
1.125065 0.328633 2.565405
0.770861 0.259117 -0.022228
1.194757 0.037699 2.745178
0.789145 0.154177 0.115426
-6.361826 1.706746 4.460655
0.811692 0.485482 0.209086
-5.318937 0.436427 2.526665
-1.400556 -0.899141 2.945217
-2.620517 0.572524 2.558639
-0.940289 -0.689741 -1.109378
-1.089221 4.374819 5.227935
0.459023 -0.909408 0.640028
0.852682 -0.016447 0.617678
-3.986223 0.275684 1.800055
1.153448 1.441469 3.110353
0.877653 -0.041503 0.719479
1.067286 0.775171 1.619026
-4.270965 1.449766 3.550611
-1.448618 0.557503 -0.804778
-0.738674 0.229610 -0.866850
-1.657976 0.582085 -0.576442
-0.732797 -0.906625 1.209183
0.824248 0.209800 0.817396
-3.230277 2.133271 1.706770
-0.678458 -0.831397 1.199410
-3.541289 2.217621 1.854414
-0.643037 -0.254330 -0.893663
-0.240300 0.157663 -1.121605
-2.282690 -0.183761 -0.759878
-3.721271 -0.767597 7.621045
-3.596004 2.167630 1.695576
-2.888932 1.089443 4.359366
-0.795066 1.161639 1.122042
0.734109 -0.092831 0.394422
1.083809 -0.152163 2.092084
1.246725 -0.410091 2.617280
-0.266265 -0.251448 -0.909446
-6.369375 0.077229 4.730468
1.102600 1.760834 3.179211
-5.105268 -0.578561 3.300434
-0.254466 -0.299523 -0.899268
-2.787907 -0.792129 7.191037
1.261550 0.137496 3.047334
1.076926 0.035491 2.322238
0.955819 0.995168 1.390739
0.777655 1.833720 -0.239733
0.122655 -1.068622 7.131090
-3.219210 2.129916 1.716202
1.053804 0.661183 1.874880
0.931424 1.114984 0.644703
0.905024 0.513859 1.129663
-3.390634 -0.714592 1.355541
-6.300182 2.218293 3.771065
-1.234693 -0.816717 3.485633
-0.507180 -0.250631 -0.885911
-0.333921 -0.473981 -1.149345
-1.049885 1.141753 -0.824115
-1.321474 1.154365 -0.759208
-2.449720 1.156339 3.727940
0.811830 0.480175 0.326373
1.054205 0.072364 1.925763
-0.254360 -0.293907 -0.887389
-3.144370 2.086384 1.723308
0.328759 -0.770497 -1.044454
0.836370 0.515602 0.823042
-2.982780 0.845860 4.331656
1.291395 1.002249 2.794131
0.744323 0.009360 0.403255
-3.537826 2.008297 1.504199
-2.702807 1.977597 4.315079
0.881125 0.910236 0.683724
-3.787117 -0.624191 3.299860
0.985640 1.219711 1.379595
1.391979 -0.399428 3.559064
0.880405 -0.042529 0.720487
-3.291429 2.152363 1.389123
-0.951797 -0.284206 -0.915248
-0.640130 1.221172 0.282136
-2.849993 -0.732082 2.827430
1.199200 1.253738 1.737180
-3.074387 1.490647 0.962807
0.972323 0.113486 1.168857
1.327647 -0.611586 2.577866
1.367276 -0.325010 5.411767
-0.366786 0.021898 4.327487
-1.802145 0.275569 6.854250
0.922110 0.276438 0.934331
-2.788755 2.085445 0.782819
0.874638 -0.167993 1.114029
0.344924 0.874635 5.012511
-1.461561 0.258185 -0.825437
1.280994 0.199816 3.515310
0.977784 0.090536 1.427417
-4.141273 0.852556 8.389771
0.915703 -0.193409 1.382398
0.965819 0.545206 1.197498
-0.559116 -0.289915 -1.002188
1.172373 -0.191257 2.739055
1.389130 -0.736477 3.748740
1.031988 0.543469 1.598304
0.942069 0.794064 0.798242
0.964139 -0.156843 1.469684
-3.961663 1.453730 0.460653
0.910253 1.049941 0.887513
-1.537770 1.241956 0.775474
-2.555250 -0.772709 4.071910
-0.216895 0.141836 -1.000125
-0.311577 0.267543 3.175228
0.836307 0.151924 0.304342
1.070157 0.056398 1.938163
-0.385567 0.143273 -0.883240
-0.614211 -0.320965 -0.919086
0.525538 0.725671 -1.047987
-3.094378 1.334286 0.225147
0.988558 0.977008 2.106482
0.365996 -0.299065 -1.007199
0.878523 -0.001551 0.752990
-0.499016 -0.209693 -1.030186
-2.938343 1.264993 3.783289
0.835764 0.507057 -0.093468
0.120960 -0.299299 -0.664961
-2.443317 0.616926 -0.437958
0.857203 1.028271 0.688975
-0.558273 0.793101 -0.763349
-3.299309 -0.543926 -0.697134
-0.887143 -0.581086 -0.797429
-2.702780 1.592881 0.789811
-2.435282 0.627962 -0.435185
-0.404492 -0.913148 2.449557
0.918767 0.426097 0.972150
-0.440670 -0.843289 1.154830
-0.354176 -0.890808 -0.578123
-4.505939 0.941853 7.977670
1.077853 1.304958 2.113561
1.053735 -0.240029 2.557897
-2.575658 -0.770061 4.039367
-2.460198 0.631109 -0.617701
-1.271447 0.321074 7.357413
0.854861 0.219011 0.728256
-0.712680 -0.897949 3.487050
0.132216 0.022388 3.113350
0.773968 0.553168 7.280165
-4.883629 2.260355 2.338107
-3.206654 2.122707 3.438497
-3.749160 2.186390 2.630745
0.117447 -0.273470 -0.647007
0.943250 -0.067133 1.096693
-0.494764 -0.841822 1.143933
1.107847 -0.354819 1.824825
-0.586410 -0.476851 -1.297832
-2.989848 -0.507226 -3.719362
-0.417407 -0.193682 -0.856983
-0.861630 1.193321 0.927097
-2.849599 1.419180 -0.225554
-2.082065 -0.846964 6.384020
-0.614562 0.933987 4.677772
-3.251287 -0.146973 -0.578706
-0.840785 -0.569726 -1.707865
-1.171337 1.162178 1.467817
0.871003 0.770051 0.536402
-2.137828 -0.471388 -2.205449
1.017124 0.892923 1.420241
0.723151 -0.149722 0.374922
-5.088230 -0.620477 4.482210
-0.476324 -0.891979 1.208423
-0.696825 -0.834936 2.774029
0.885535 -0.048195 0.723350
-2.666981 1.830657 1.440952
-6.262378 2.198933 3.719778
-2.774819 1.322737 4.260581
-2.129138 0.550839 -0.614593
0.975635 0.113573 1.093885
-3.730850 1.361691 0.467554
-4.434537 0.894113 8.397887
-0.409683 0.157000 -0.993382
0.919940 0.158568 1.113028
-1.195452 1.187658 1.698043
0.302487 -0.237307 -1.072835
0.826318 0.395652 0.363179
0.927064 0.446266 0.957790
1.422855 -0.412640 4.180669
-2.849681 1.729647 0.824972
0.994078 0.254792 1.034499
0.831853 0.137383 0.306593
-4.260940 1.471724 0.319546
0.793623 0.258768 0.151434
-1.357365 1.306199 -0.573725
-0.706323 -0.882539 -0.144344
-1.651514 0.807788 -0.621125
-3.462250 1.957379 1.539930
0.839517 -0.184247 1.168388
-0.806822 -0.330654 -0.799958
-4.981597 -0.660366 5.825675
-2.061109 0.645836 -0.589434
-1.052000 0.495963 -0.845632
-0.972051 1.218270 1.733279
-6.379950 2.245722 3.818878
-3.139905 1.142175 1.671448
-3.272663 -3.441470 2.313295
-3.499197 1.154479 1.892415
-0.666831 -0.817920 -0.166884
1.014455 0.624619 1.776565
-0.960043 -0.679771 -1.086353
0.805566 0.466556 0.320517
1.500617 1.185045 3.082081
-3.233212 1.484592 4.723724
0.968358 -0.025577 1.092681
-0.349338 -0.564891 -1.138623
0.832182 0.806468 0.267929
-3.944015 2.157936 2.725136
-1.460034 0.989018 -0.389654
-5.301482 -0.577133 3.259497
-0.839356 1.148471 -0.841828
0.944037 0.044254 1.700486
-2.919628 1.132100 4.469490
1.253450 0.525337 6.416234
0.756328 -0.284471 6.200563
1.031932 0.916425 1.594376
-2.827854 1.318816 6.183558
0.194382 -0.217398 -1.006583
0.790651 -0.361928 6.741428
-3.470258 2.123731 3.258372
1.035911 -0.147893 1.840768
1.093920 1.779858 3.217279
-2.656519 -0.415255 -1.238718
-1.739167 1.238603 -0.348278
-0.489008 -0.997758 7.062115
-1.084705 -0.784794 -0.846141
-1.585147 1.084206 -0.175386
0.829414 0.011206 0.717201
0.778968 0.468465 0.138692
-0.382466 0.021218 4.401322
-2.994476 1.328599 3.541427
-0.428973 1.111110 2.046289
-0.258192 -0.198928 -0.917132
-3.814952 2.210286 2.825462
1.043716 0.295168 1.934191
-3.499222 2.178293 1.845769
-1.067944 0.098734 3.371802
0.930186 0.252830 0.918838
0.150833 0.216161 4.054264
1.430301 -0.606121 4.242192
1.070872 0.394880 1.979905
-4.375296 0.942597 0.493289
1.361317 -0.351383 6.078434
-0.781905 1.214455 1.118718
0.941674 0.439315 1.066434
-1.657262 1.309518 0.324483
0.944315 -0.078566 1.102214
-3.291130 2.149855 1.390439
-1.973812 2.066536 0.248844
-2.785931 -0.795235 4.242142
1.433269 1.668640 2.890268
0.503740 0.711165 -0.998303
0.811367 0.166775 0.776596
-1.137225 1.304447 3.602287
0.854602 1.069017 1.198061
-5.723512 -0.608941 3.518272
-3.846893 2.093637 2.710708
-2.608915 2.095691 0.795426
0.185602 -0.204496 -0.938222
0.728406 -0.154508 0.392284
-0.064126 1.928922 3.133976
1.074566 0.076200 1.952407
1.263740 -0.341936 2.628519
-1.428935 0.552208 -0.782944
-3.237196 0.969588 3.944242
1.209333 -0.329820 2.188970
-0.883150 1.230776 0.609610
-3.326888 1.237591 1.731617
-2.173512 1.216106 -0.154784
-2.655040 1.528001 0.848578
-4.057851 2.182279 3.519742
-0.793521 -0.325535 -0.880734
-0.323065 0.259466 3.145770
1.224373 0.676197 3.055303
-0.998433 0.497450 -0.831167
-6.545039 0.227181 2.774914
-2.679800 1.593670 3.608953
-3.324897 1.746519 1.762567
0.357409 -0.817807 -1.017433
-5.543272 -0.582503 3.416052
0.964418 0.685243 1.399997
-0.647723 -0.450785 -1.241343
-3.504621 2.100880 1.709165
0.877851 0.307772 0.570297
0.828094 1.920768 -0.695337
0.793654 -0.046255 0.232714
1.461858 -0.774110 3.493197
-1.865055 1.004606 -0.264606
-0.651955 -0.456643 -1.262781
-1.951645 1.097108 -0.132507
0.967534 0.091201 1.469393
1.469606 -0.693696 3.134835
-3.348291 -0.527577 -1.590680
1.100133 1.307151 3.539398
-1.193333 1.521315 2.188745
-3.340345 1.354995 0.393104
-1.413631 -0.813208 3.383927
-4.400299 -4.664704 3.116794
-5.108382 2.290432 2.147204
1.213730 -0.493358 1.699779
-1.834630 -1.588220 -0.493404
-1.164277 0.386335 -0.844837
-7.191685 0.317199 3.467665
1.028483 0.734940 1.595461
0.956435 0.150266 1.383217
-1.336705 -0.793400 2.699602
0.947350 1.140669 0.651552
-3.338814 1.322760 0.463889
-0.896717 -0.785551 -0.116699
-5.913520 0.152603 5.312597
-0.654393 -0.806268 -0.164461
-2.085937 0.669081 -0.601573
-1.569507 1.231169 0.818532
-5.002992 1.560163 1.879586
-0.772373 -0.310143 -0.856148
1.511115 -0.887471 3.737416
-0.744702 0.200290 -0.912652
-1.947847 0.618118 -0.475015
-3.983125 1.181971 3.353395
-1.538089 0.678059 -0.766070
-3.764550 1.355135 3.918632
-0.904728 -0.796614 -0.123196
-4.074246 1.211323 3.385569
-1.200737 1.188309 1.484734
1.287681 0.378781 3.562769
-1.545078 1.016926 -0.760804
0.826352 0.209979 0.823069
-0.268356 -0.202500 -0.951934
-0.419464 1.123333 2.082044
1.137526 0.602845 2.363465
-0.185160 -0.469431 -1.171511
-1.162597 0.232833 3.531559
1.346729 -0.329203 5.208021
-0.699281 -0.916716 3.316353
-3.322382 -0.649336 0.311397
-5.151317 1.456404 4.833447
0.834272 0.476889 0.179737
1.028309 0.636285 1.880423
-4.673073 1.400181 0.966241
-2.030216 1.295205 -0.163819
-1.267630 1.235857 0.761425
0.399731 -0.286702 -1.060192
1.068044 0.679726 1.954085
0.793007 0.167913 0.768532
-1.327640 0.635163 4.053279
0.741209 -0.307922 6.200081
-6.611058 0.170789 3.700895
0.706485 1.715929 4.691625
-2.897518 1.700057 3.790894
0.793373 0.143856 0.222615
1.054718 0.157177 2.114805
-3.206144 0.501540 2.593901
0.963348 0.768752 1.175722
-1.617310 0.522815 -0.548823
-3.571483 1.086292 6.240262
-4.009801 -0.627505 3.203729
-3.277271 0.902459 6.037582
-4.586815 1.469072 0.584057
-6.562530 1.798331 4.087581
-1.461216 -0.830635 3.406883
-2.917171 1.124508 4.443911
-0.351570 -0.281160 -0.882488
-2.327754 -0.355635 -0.949772
-0.533629 -0.229072 -0.885265
-0.429988 -0.841523 2.383516
1.116195 1.308451 3.614991
-2.148185 1.301078 -0.099579
-0.808599 -0.466768 -0.809958
-6.275894 1.492958 3.964823
-1.155429 1.222543 1.000857
0.787769 0.464422 0.182482
-0.370005 0.769919 -1.011657
-6.432778 0.318704 2.999116
0.989430 1.124920 3.619721
-3.967299 1.693192 4.558040
-6.105987 -0.525337 0.746017
0.494183 1.767858 4.337498
-1.527216 1.599958 6.918440
1.572790 1.674914 6.469133
1.205261 0.030153 3.337349
-6.194391 2.180047 4.554773
1.139930 1.410669 3.088408
-3.802425 2.208611 2.834634
1.151216 0.184204 2.255335
1.000689 1.137428 3.639621
-0.679105 -0.839728 -0.134710
0.908967 -0.001693 0.770672
0.169458 -1.009522 6.107711
-1.766354 1.355603 0.328200
-4.131170 1.465455 0.514993
0.957030 0.764128 1.166914
1.112294 1.171443 2.524129
-3.016597 1.182590 3.717445
0.880147 -0.048110 0.719529
0.698680 0.769629 1.618604
0.987994 -0.140970 1.664334
-0.424486 -0.196785 -0.883282
0.918064 0.593789 0.777128
1.034492 0.405904 1.655270
-0.745712 -0.843815 3.415464
-5.913465 0.150222 5.303383
0.417290 1.165079 5.243404
-5.154072 1.496753 4.476107
0.932517 0.448074 0.960776
-3.270106 1.344768 5.701844
0.577191 -0.140800 1.459659
-0.318003 0.698308 -0.780816
-2.732100 1.608163 3.601729
-1.807836 0.285860 6.783637
-1.201994 0.487528 -0.830254
-3.456776 -3.497277 1.887987
-5.705150 1.211165 6.344851
-5.558607 -0.585257 3.385290
-6.393282 0.064319 4.717916
0.935547 -0.015130 0.892578
-0.799008 0.813393 -0.843753
-1.347664 1.262474 -0.481321
-0.063378 1.669102 2.678217
-1.236447 0.613120 3.820834
-0.962817 -0.750086 -2.063856
1.076236 -0.139782 1.698057
1.178735 1.355752 3.189509
-4.499690 -0.641426 3.365635
1.285697 0.992438 2.993091
-1.478249 0.652522 -0.626471
0.241675 0.992573 3.783868
-0.180375 0.119483 3.111859
1.174840 0.620549 3.190624
-3.200285 1.472694 1.557935
-1.032771 0.107166 3.293119
1.187953 0.648859 3.022102
1.554381 -0.821012 4.417992
1.030880 -0.230596 2.566912
1.097278 0.194826 1.874435
-0.353325 -0.566092 -1.145306
1.081160 0.396776 1.848461
-0.883314 1.202547 0.122930
-2.740168 1.608178 3.595032
1.178632 0.164223 2.625448
-5.808983 0.469137 2.725601
-5.886051 1.606417 5.430115
-2.088736 1.015335 -0.281880
0.780185 -0.168884 0.795859
-2.437804 -0.964043 6.980044
-4.355469 -0.103417 -0.322739
-5.081244 -0.618746 4.519447
-4.713537 1.278786 3.894992
-2.982103 1.324007 0.247626
0.814360 0.467679 0.362959
-2.936874 -0.724087 2.867692
-3.885946 -0.883268 8.122906
1.176713 0.044553 2.653367
-0.663722 0.264738 3.258654
1.112986 0.053972 2.233854
0.784216 -0.164377 0.749756
0.202248 -0.220514 -1.038868
-4.112129 1.412531 0.077350
-4.916928 -0.515990 -1.874746
0.769611 -0.894918 6.989221
-2.904506 -0.726451 2.890692
-0.461327 -0.205221 -0.966256
-0.833246 0.817791 -0.910436
1.106313 1.339808 2.176023
-6.302929 2.228185 3.788708
-0.160171 0.703770 -0.857007
-3.076291 1.940836 4.315350
-2.573901 -0.824235 5.447319
-2.588270 1.244609 4.306123
0.722466 -0.152629 0.367944
0.774111 -0.095066 0.115184
-5.623713 1.184496 6.257772
1.358500 0.924929 3.616429
-3.752614 2.077211 3.699101
0.966040 -0.139759 1.745491
-2.235190 1.305624 -0.063949
-5.241289 1.189424 7.233332
1.252451 -0.347963 2.604745
0.798200 -0.166377 0.790082
-0.335586 -0.567572 -1.141003
-0.019130 -0.914877 3.613254
-0.259904 -0.202625 -0.911852
-0.110615 1.896900 3.139153
1.343649 -0.366757 2.604972
-4.242341 1.520148 1.643930
1.123244 0.404186 1.675482
-1.214635 0.251087 3.685145
-5.413724 0.990461 6.495628
1.343986 0.189400 2.641214
0.885836 -0.003570 0.756774
-3.242546 -0.639987 0.276866
0.422020 1.028149 4.903344
0.826457 0.394776 0.829234
-3.022721 0.857321 3.706439
-3.889848 1.005241 -0.240673
1.200130 0.164262 2.662537
0.960592 0.064401 1.716610
0.200267 -1.034864 6.036610
0.837576 0.209620 0.828111
-0.012432 2.396753 3.942351
1.208945 1.435172 3.910665
-4.589599 -0.709042 6.918320
-0.233473 -0.884291 2.374635
1.375271 0.927218 3.658621
1.564655 0.340284 3.162695
-0.163228 0.273731 3.164401
-1.240441 1.432919 3.919370
-4.015042 1.426040 1.559805
-2.534752 -0.771767 4.080853
0.971065 0.888063 1.508285
-5.424631 1.002421 6.483897
-0.441615 -0.850655 1.102348
-4.546157 1.979480 0.899129
1.129657 1.415799 3.069323
-2.811229 -0.811072 2.913139
0.818253 0.800560 -0.465700
0.936451 0.410722 1.337707
-2.503962 1.665391 3.787369
-3.039362 1.116788 3.669706
-0.129556 0.136404 3.162055
-3.202236 0.765362 6.836286
-1.413016 1.675246 4.421458
-2.530373 0.728660 -0.314116
0.688277 1.728508 4.755920
0.785203 0.261125 -0.031316
-1.395784 -0.186835 -0.709773
0.777523 1.651615 5.385544
0.918545 -0.324055 5.958645
-4.080203 -0.673370 7.728977
-2.619882 2.123652 0.827712
-4.964375 -0.645565 5.756815
0.947719 0.147111 1.574754
1.085820 0.626479 2.584695
-0.471026 -0.868590 2.428781
-2.764792 1.885079 5.970193
-4.303231 -0.149443 7.752532
-0.891887 1.160332 1.679744
1.271000 -0.374669 3.751673
-6.211436 0.797476 5.604777
-6.309568 2.230550 4.642652
-1.702862 1.191597 4.441659
-1.077013 0.105523 3.405841
-1.061886 0.100948 3.373690
1.078728 1.268380 3.399857
0.052861 -0.435518 2.187577
-0.873875 1.214022 0.605909
0.982853 0.860288 3.252144
-5.790354 1.611825 5.391197
1.118045 -0.158966 1.887241
-4.256917 1.528453 1.653617
1.103937 0.415488 1.674000
-0.613473 -0.966069 1.189914
1.331296 -0.300052 3.840609
0.833768 0.003754 0.348441
1.180502 0.647738 2.999566
-2.454612 1.590832 3.744371
1.284886 -0.357806 2.556076
0.953732 0.421616 1.354352
-4.122580 1.437431 0.052691
-2.681570 1.583423 3.590536
-0.467067 0.073542 3.261235
-3.539381 0.867972 6.330020
0.805527 0.476655 0.326432
-0.437564 0.248579 -1.773979
-3.756092 1.348764 3.907527
-0.969376 1.130983 1.503781
-1.717090 1.161856 -0.517815
0.991001 0.073404 1.743290
-3.223920 2.103887 1.411963
-3.390246 1.980133 6.428078
-3.119284 -0.597301 1.192899
0.795157 0.389771 0.799591
1.081877 0.051803 2.060040
-0.920104 1.175443 1.695694
-0.937733 -0.402331 -0.784654
-2.381528 -0.373803 -1.028285
-2.527257 1.089132 -0.357609
-2.946063 1.333939 3.523938
-0.671358 -0.819156 1.193636
1.343176 0.177615 2.503890
-0.721222 0.078227 3.331952
0.953361 -0.217058 2.048933
-2.308500 -0.778914 5.147972
-0.669276 -0.823620 1.183618
-2.557894 1.091264 -0.366799
-3.340568 1.341086 5.825630
-4.039567 2.066241 1.343533
-4.260464 1.272845 8.114180
0.934504 0.062552 1.680659
-1.395813 -0.208140 -0.800841
0.826299 0.404484 0.814631
0.801217 -0.041869 0.229321
0.837151 -0.211876 1.209174
1.507351 -0.366817 5.642713
-3.224652 1.161876 6.403188
-3.776553 2.196251 2.805957
-4.422720 -0.375746 -0.321430
-1.056593 1.149057 1.192987
-0.873304 -0.787313 0.121181
0.991991 0.727539 1.399528
-3.302867 1.472292 5.812799
-4.462887 2.236369 1.734492
1.064775 1.426110 1.423016
-2.867852 1.022566 4.069916
-4.369438 1.452762 0.309998
1.190184 0.350164 2.770746
-1.511848 1.212182 1.018916
0.188681 -0.972673 4.848103
1.056015 0.942269 1.619355
0.912177 -0.202437 1.682085
1.043405 0.295331 1.556356
-4.041795 0.660369 7.498891
0.478143 0.930667 5.026456
-0.641003 -0.873580 3.262993
0.820842 0.098076 0.828385
1.440557 0.522380 3.553226
-3.894150 1.365021 0.705001
-0.841406 1.187613 1.133126
-3.183709 1.880095 6.187267
-6.821747 0.225164 3.388353
-4.447339 1.224070 3.564448
1.138047 0.394353 2.126235
-1.372213 0.962486 -0.432718
1.115859 1.787359 3.133758
-5.827296 1.337284 5.746601
-0.957120 0.343897 7.004021
-0.431892 -0.835218 1.157444
1.091857 0.892468 2.181475
0.907449 -0.014755 0.878362
1.153026 0.342143 2.686582
-6.636711 0.198637 3.299214
-0.969153 0.826817 3.072503
-5.166710 -0.548371 -2.048024
-3.150057 1.314820 5.546467
-3.122893 1.121288 3.750019
1.534371 -0.508590 4.863761
-0.545701 -0.892128 1.091341
1.699246 -0.950139 4.137418
0.962778 -0.140686 1.726072
0.947021 -0.106037 1.529117
0.842337 0.102409 0.844917
-6.773365 0.220986 2.808679
-0.940905 -1.058676 -0.911647
-1.030450 1.199198 1.659819
-0.648436 -0.871968 3.242731
-4.291783 1.421667 3.499455
0.958797 -0.130533 1.453714
-5.325381 1.208499 7.348464
0.950604 0.630188 0.071899
-2.812741 1.283229 4.404743
1.139297 0.633366 2.420624
0.952524 0.186226 1.397235
0.960629 0.143614 1.628009
1.388087 -0.406197 3.516595
1.082301 -0.302879 3.800286
-3.504938 2.203634 1.857830
0.323793 1.508464 5.301023
-3.688676 -0.537980 -1.754570
1.190629 1.362854 3.214905
1.308280 -0.301031 3.800044
0.835992 -0.001182 0.409623
0.999653 -0.151732 1.444971
-0.682574 0.085959 3.120989
-2.378828 1.571886 3.709785
1.119933 -0.363409 1.822016
-1.762938 1.593038 5.305507
-1.571576 1.417279 4.778784
0.954629 0.048822 1.364927
-3.367421 0.974514 6.548229
-5.521523 1.238507 6.291098
-1.880511 -0.679649 4.315512
1.170100 -0.189148 0.024031
1.143742 1.432792 3.096880
-4.091761 0.884143 0.015661
-3.384419 1.894806 6.330428
-2.912376 1.115489 4.401176
1.184921 0.291800 5.432471
-0.237985 0.026620 1.084063
-2.689726 1.965436 4.304079
1.127988 0.364749 2.229394
-0.702435 -0.816481 -0.117142
1.081879 1.097468 2.319582
-2.050627 -0.844088 6.413493
0.258334 1.943800 3.228255
-0.757918 -0.827190 0.701709
0.784143 -0.323668 6.310895
1.274967 -0.345993 2.554021
-6.715880 1.968422 5.666208
-2.090153 -0.841707 6.317567
-3.196654 1.297155 -0.060954
1.298831 -0.364376 2.577322
-4.957332 1.485066 3.933861
2.427571 -0.445404 6.232343
-0.887353 -0.831219 2.654576
0.188565 -0.265313 -0.962051
-6.140559 0.269445 2.768126
-0.614087 -0.858998 3.254594
-4.252833 1.515715 1.652782
-1.225743 0.305664 -0.860289
0.705004 1.765754 4.806242
-3.276488 1.913932 6.252054
1.259387 0.136583 3.050723
0.847550 0.830701 1.212811
-2.980180 1.997933 0.560896
-1.764896 1.357933 0.328661
1.238877 1.085396 3.973169
-2.113089 1.372856 0.350427
0.104184 0.024292 2.671351
-2.719692 1.562454 0.819668
0.961721 0.665026 1.516427
1.195316 -0.484861 1.679388
-3.662583 1.672123 3.444896
1.129126 -0.282865 4.009740
-4.605165 0.995694 0.503923
1.020721 -0.155206 1.439641
-4.496826 1.959784 0.903509
-4.588837 0.739902 6.930221
1.516888 0.186027 2.677306
-0.790736 -0.490680 -0.861883
-0.615323 0.761919 -0.866475
-1.492516 -0.786530 2.890970
0.934131 0.448404 0.964847
1.104514 -0.171881 2.301329
-0.177603 -0.523950 -1.293134
1.098831 1.339649 2.135225
0.256496 -0.736439 -0.414266
1.065738 0.298531 1.967147
-0.177955 0.040573 3.121213
1.091235 1.349000 1.543726
-1.155613 -0.711299 2.514322
0.994479 1.348359 1.894129
1.452855 -0.695369 3.100847
-5.099638 1.454657 4.459072
-3.937932 -0.410689 -1.371248
-0.957732 0.337247 6.980188
-2.591964 1.684120 3.941284
-4.810270 -0.495366 -1.808063
1.255333 -0.447690 3.695286
-1.024356 0.471232 -0.842637
-0.126501 -0.443640 6.913414
1.196101 0.652968 2.963789
-0.955876 -0.523108 -0.819299
0.959583 -0.004911 0.758995
-4.650982 -0.648335 5.550243
-0.228801 -0.885840 2.375127
-0.481586 -0.902230 1.143247
0.818519 -0.014046 0.409863
-2.755107 1.097479 6.531391
-2.819866 1.120564 7.090865
1.321399 -0.151949 2.329199
1.494615 -0.872821 3.724885
0.804740 0.144560 0.237178
0.534658 0.733647 -1.182877
0.832242 0.008493 0.294256
-1.651322 1.279018 0.438102
-0.291549 -0.985035 3.963405
0.928949 0.306877 0.748334
1.255435 -0.349408 1.655641
-3.448456 2.115256 3.247023
-0.701344 -0.837941 2.778052
-3.449896 2.134159 3.251480
-3.477205 0.997721 6.711802
-3.123520 2.092943 3.400761
0.803109 0.468787 0.212460
0.017590 -0.976488 3.629398
-2.412844 1.366724 5.921127
-4.251625 1.165516 3.431381
-3.172604 1.156390 6.315166
-2.492862 -0.743319 3.955950
-0.102699 1.901201 3.142120
-6.148148 1.418605 2.910611
-0.711030 0.071308 3.285077
-0.181439 0.040122 3.149903
-3.131775 0.655276 6.968981
-1.856141 1.582126 5.321908
0.940654 0.878557 0.676201
0.853014 0.002074 0.491411
-5.261347 1.007472 6.284958
-2.619066 1.327767 -0.027906
-0.672051 1.724012 2.049878
-2.875729 -0.717256 2.848978
-0.551231 -0.879771 2.100157
1.336923 -0.199394 2.954787
-1.073601 0.899301 -0.843052
-0.464701 -0.238987 -0.885289
0.806284 0.163936 0.762162
-0.497880 -0.926215 1.155928
1.345831 0.216706 3.565926
-0.463491 -0.767989 7.091486
1.131601 0.608250 2.344173
-2.323901 0.570864 -0.488783
-6.871906 -0.029887 2.806973
-3.422152 1.954694 1.609708
1.312521 0.374465 2.787930
-2.662788 1.724430 3.982143
1.365877 0.666310 3.162510
-0.482951 0.145754 3.229517
-6.252773 2.198981 3.749088
1.037813 -0.056489 2.013389
-3.000589 1.208662 7.612317
-3.307045 1.329907 0.483023
0.400646 -0.837327 -1.039951
-2.999477 -0.197840 7.271945
1.072252 0.686450 2.177355
-2.814304 1.080437 6.876504
-3.051050 0.877510 3.747038
-4.039623 -0.639645 3.242275
0.806813 1.235496 6.879488
-2.897325 1.044825 4.083920
-1.196687 1.195552 1.495384
1.480641 0.666295 3.466878
-0.036928 -0.922982 3.578528
-2.166230 1.261790 -0.070660
1.010830 1.373388 3.579263
-5.887236 1.396054 5.814033
0.693829 -0.919036 6.658113
-2.892745 1.042635 4.063686
-0.462878 0.840264 -0.798561
-4.012526 -0.547984 7.456554
-2.837922 1.398268 -0.266360
-9.881660 -0.172149 -0.970204
-1.530033 1.596476 6.903879
-0.409352 1.121306 2.071686
1.066380 0.193801 1.836529
0.945691 0.443771 1.065172
-2.897065 -0.703778 7.303540
-0.820423 -0.875330 -0.100285
1.493682 -0.415898 3.581240
0.961960 -0.072461 1.142489
-4.445366 -0.092057 -0.190824
-3.736585 0.915961 6.594792
0.934749 0.096651 1.105268
-3.140728 1.280783 5.560779
-6.416751 0.279210 2.883522
-0.632514 -0.867891 3.262206
0.928137 0.333772 1.711276
0.950236 0.779563 1.049968
2.380586 -0.295911 2.904736
0.881155 0.312805 0.547797
0.136251 0.032994 3.340404
0.841872 -0.190133 1.253389
0.941722 0.176658 1.393201
1.335282 -0.515691 2.939123
0.356346 -0.434251 -1.574387
0.252710 -0.845831 -0.419969
0.957835 0.784218 0.810404
-1.197826 0.522987 -0.813676
-2.235476 1.301320 -0.040666
1.085971 1.475031 2.028979
0.204751 -0.984701 4.905923
1.086391 0.194380 1.886782
0.901199 -0.205515 1.652234
-2.858056 1.631770 0.852240
0.975270 0.092692 1.478005
0.255954 -0.847048 -0.423065
0.932143 0.567538 0.980837
-1.094845 1.195656 1.214500
0.252206 -0.846704 -0.419976
-1.189296 1.051564 2.039953
-0.721620 -0.564356 -0.752773
1.018209 -0.141546 1.656711
-1.056335 1.041661 1.545499
-1.329384 -0.795993 2.701402
-4.478045 0.775142 6.976394
1.198989 1.768695 3.256617
1.060372 1.103292 1.551127
0.798966 0.678626 0.805749
0.850591 0.296864 0.542134
1.123225 0.183653 2.249598
0.967357 0.113658 1.092276
1.070585 -0.281389 1.714932
-3.525123 1.619933 3.664381
-0.593877 -0.940647 1.178422
-3.454874 1.345187 3.984473
-2.707468 -0.761406 7.025548
-0.293477 -0.924918 2.438437
0.953939 -0.024035 1.053987
-2.024776 -0.821244 6.340293
-0.732581 0.096420 3.329747
-0.438290 -0.984167 7.127984
-0.026254 -0.908845 3.543329
1.198619 0.609047 2.363798
0.728041 -0.154917 0.357902
-1.565640 1.251957 0.733835
1.311360 0.652690 3.140630
-1.038638 0.522082 -0.895515
-2.215703 1.495845 3.311154
-2.518306 -0.801196 5.332367
-0.680716 -0.828977 1.186355
-0.474014 -0.865050 2.417689
-2.852597 0.554037 7.355020
-2.576341 1.521678 6.208703
1.182884 -0.311417 2.579686
-2.184791 -0.806195 5.092476
-0.888012 0.817265 -0.837836
1.109391 -0.252823 2.837610
-2.664831 1.559514 6.414833
-1.195027 1.193108 1.493870
-0.412508 1.689410 1.802509
-2.833319 1.613582 0.859972
-2.091588 -0.855916 6.456083
0.831627 0.173130 0.784966
-5.147289 1.337727 4.612939
-3.392687 1.950033 1.607118
-3.265435 -0.522508 -3.979819
-2.462106 -0.804741 5.325111
-1.683880 0.524257 -0.501062
-4.308454 -0.248773 9.216782
-0.878505 -0.826700 2.656648
-1.640695 1.630584 4.975758
-2.052802 0.567026 6.689188
-3.730583 1.338943 3.879275
-0.206260 0.200684 3.116135
1.303472 1.223042 2.550206
-0.176024 0.789272 3.379063
1.091998 0.688918 1.938378
-0.547905 0.263017 3.225646
-4.596574 0.994724 0.507774
-3.918728 -0.538911 -2.918940
0.492001 1.749843 4.301644
-0.843743 0.781161 -0.778689
1.085446 1.279062 3.400917
0.955824 -0.217555 2.014037
0.961686 0.112019 1.054596
1.449798 -0.665044 3.155551
1.218916 0.661767 3.297668
-0.937638 -0.836026 2.658706
-3.375885 1.212890 6.648915
-1.563880 -0.316033 -1.887416
0.823573 0.148922 0.295286
-3.148892 0.866582 3.822775
1.058620 -0.127445 1.944775
-2.114453 0.543017 -0.522992
1.086882 0.225895 1.170624
-3.066878 -0.698290 1.598781
-2.214059 1.961917 0.274242
-0.407032 1.102465 2.058372
-1.018640 1.086362 -0.628066
0.989858 0.057702 1.754343
-1.438902 -0.773974 2.879708
0.921957 -0.116307 1.759454
0.242844 1.816592 2.993607
-0.892170 -0.759529 0.005188
0.372434 -0.283494 -1.010001
-0.880577 -0.797148 -0.057923
1.542930 -0.457033 2.674958
1.103228 0.202362 1.906731
-1.905019 1.344526 0.337545
-0.937242 -0.854693 2.716069
1.059507 -0.127806 1.937565
-4.961206 -0.637925 5.732859
0.902609 -0.222441 1.268565
0.815152 0.621264 0.086093
0.986413 -0.161743 1.428072
0.964696 -0.106153 1.520060
0.062426 -0.899294 5.688027
0.972538 0.415434 1.377116
1.038708 0.684452 2.182632
1.199674 0.035323 2.749537
-2.015136 0.535381 6.476513
1.074804 1.092186 2.306442
-1.561974 0.559808 4.229308
1.175824 -0.442536 1.801978
-0.028157 -0.926506 3.625357
1.223552 -0.429342 3.659240
1.000611 0.889477 1.555573
-0.270999 -0.918240 3.701956
-5.315376 1.468960 4.622628
0.309331 -0.427126 -1.513969
-2.637879 -0.332966 -1.660944
0.931232 -0.149014 1.467265
-10.584855 -0.186309 -1.068212
1.000392 0.874734 1.405148
-6.519782 -0.104819 3.670848
1.027452 -0.235722 2.414439
-0.238069 0.380399 3.601353
0.852248 0.451856 0.503024
0.201745 -0.287889 -1.073116
-2.487043 1.005715 6.425473
-3.394194 1.567233 3.541499
1.083557 0.077243 1.961517
0.941396 0.120260 0.895379
-2.973635 -0.691840 1.581141
-0.572882 0.262564 3.226258
-0.875475 -0.694702 -1.889541
0.964923 -0.215981 2.057544
-1.313838 1.121498 -0.737518
0.794959 0.267456 -0.042887
-4.537121 1.722443 1.740747
-0.026204 -0.918466 3.606625
-2.540050 -0.771828 4.079476
0.391549 -0.780788 -1.016413
-5.678259 1.654953 3.885346
-0.390359 0.134986 -0.832550
-2.800501 2.158890 0.543215
1.391676 -0.195620 2.781161
-0.319336 0.517742 6.224250
1.491842 -0.689971 3.273398
-0.816273 -0.659512 -1.756132
-0.177525 0.117781 3.110483
1.204417 1.779108 3.268906
1.096456 1.780853 3.232890
-1.560025 1.259663 0.705081
-2.878425 -0.897152 7.776295
0.713299 -0.151970 0.389404
1.224594 1.057702 3.353713
0.262389 -0.866062 -0.485673
1.811394 -1.013004 4.978761
-0.198663 0.115887 3.139015
-2.001848 0.820924 -0.480244
-2.764193 2.073929 0.866957
0.117372 0.024099 2.898651
1.397192 -0.744033 3.733082
1.000358 -0.054752 1.586197
-2.479061 1.317337 5.986949
-0.754216 0.236120 -0.886101
-4.073140 0.900413 0.062927
1.195548 0.911161 3.732676
1.262430 0.531951 6.469146
-2.444758 1.600630 6.352447
